# .PCD v0.7 - Point Cloud Data file format
VERSION 0.7
FIELDS x y z
SIZE 4 4 4
TYPE F F F
COUNT 1 1 1
WIDTH 1291
HEIGHT 1
VIEWPOINT 0 0 0 1 0 0 0
POINTS 1291
DATA ascii
-8.022119682 21.07714073 154.7088651
-7.583031356 14.77287985 144.8895142
-1.880578413 1.818005009 89.49916019
-7.071044145 14.87564119 142.0379328
3.784663804 -0.798740841 115.5770518
-1.475778092 3.295433644 119.4989103
2.149555241 -0.5997339094 114.6512738
1.628311552 1.696677652 107.061613
-1.98284734 1.978534537 77.39653341
-8.373785754 16.68894188 146.2363557
-0.466146327 -2.278659736 108.9794965
-7.392170803 -53.47497733 120.4349159
-7.792127748 -45.22405542 121.0782808
-2.39789284 3.293616815 122.1026065
-8.65126416 5.965042165 127.7883731
-2.374755995 0.7270401775 97.76094127
-6.620157321 -8.827846347 119.6991222
-1.220398557 -2.616247242 71.06101252
-8.685463003 3.617095968 112.1813995
-11.00671092 1.641341292 119.1927234
3.111296868 -0.1466368395 122.8075714
-8.464252031 -15.96898147 120.934683
-0.2462848775 -2.604557568 86.24165476
2.85189555 1.053376222 60.8748418
12.73505845 3.295473475 119.014983
-3.720100955 0.5398284246 115.5784947
-7.837408083 3.275212899 115.2226049
-1.363465709 -1.829729168 111.4205119
0.310790142 -2.977479885 63.63532165
-2.616707328 -0.7153730931 82.49664944
-8.457613825 -3.461666958 120.0728706
3.111431009 3.133825764 122.7989021
0.6994572992 2.276938309 104.5597122
0.08718184744 2.943815771 67.34388333
-1.222900285 1.953852892 110.0672435
-8.104352905 23.87680636 158.7795624
0.349319974 2.996029263 62.14832711
-8.558271722 10.72161702 135.319603
-1.794871591 2.125867671 77.7952383
-6.656448143 -11.95817806 119.6669169
-0.8145866072 2.44502677 91.56201967
13.782897 -3.29500722 121.1106769
-7.246938452 -27.36235363 119.4103517
-7.457172088 21.71426797 155.9206364
0.2173463188 -2.492910775 96.51167151
1.555853622 -2.039599621 92.40092006
-6.62867293 5.539302873 128.1010965
-1.689360915 -2.172254682 76.96213468
-1.104662902 2.420138486 86.28322668
-6.75487611 -16.06142779 119.7576818
-0.7185897031 0.4533504021 122.8075714
-8.390097636 -21.09879174 119.5107744
15.11781425 3.269045377 121.1845594
-6.770522385 7.385694345 104.0134306
-2.860197419 0.9494875916 62.36095082
1.321085757 -1.965119426 106.217268
-1.232789021 -2.025384108 105.5336595
-8.819698893 -0.7847077523 121.4623022
-2.720522355 0.4083286284 76.9485663
-1.293856796 -2.224883598 91.83634935
0.4712716483 -3.006878041 60.62554155
0.3845436366 -2.919412998 67.01786243
2.712103263 -0.4121150468 80.64063078
1.112823834 2.831844152 61.0042575
-7.794838944 11.08279147 132.9271169
-2.815442795 -0.7205634196 69.67210843
9.694397382 -3.295271613 121.5580969
2.195642407 -2.082934953 61.95960582
-7.346931315 4.275827811 113.3351504
-8.149656507 -40.98158982 120.0294675
9.327501473 1.437317 115.9099611
15.14050862 2.793215965 118.8550727
1.05120411 2.208372605 100.4644962
-1.498448072 -2.365135595 77.10843713
-8.294046461 -0.3715914762 121.7268906
-1.627241762 -3.293106301 122.2354765
15.14303359 -0.5221250516 120.8126289
8.820939541 3.295540611 120.2750763
-6.696023633 -10.4405636 119.3681754
-7.143269558 -33.90328961 119.8009262
-1.983289539 -1.759818835 86.65617227
-7.733211202 18.2485114 84.43037353
15.14303364 -1.342090843 117.7941957
2.09722182 1.751775561 122.8075062
0.7985493547 2.716362607 74.50151652
-2.491793639 1.120299456 81.56189743
3.009054979 0.2478470024 61.94619362
0.3535077139 2.801833086 75.05096309
1.857312025 -2.197770922 71.42569457
-7.945833576 9.146727235 99.17202675
1.402986963 2.054449624 98.12199863
12.2492291 3.295415793 121.3726162
-0.1070509638 0.9340293968 115.5767822
-7.99508354 8.229572883 100.7627469
-0.9690748658 -2.832272536 63.76794081
-7.392664416 23.69229903 157.4826873
0.008468814952 -2.77562923 79.05753514
-6.713533623 1.487522474 121.6723762
-2.333348559 1.364303575 83.21532237
1.959292085 1.802997804 86.06526348
0.08400880577 2.814434511 75.97924248
0.8165763363 -2.113955819 112.7186278
-0.3337363204 -2.82657875 73.53213011
-5.413642228 0.09711634253 122.3082383
-6.766034386 2.714883262 115.0784826
-7.702344475 -15.30005948 122.3304675
6.780807878 -3.02172989 116.3120822
-1.286305051 -3.295444807 120.2047853
0.05626220946 -2.895383864 70.77059361
5.266956166 -3.295517848 119.8559182
-10.06271883 -2.022340157 119.7348395
-2.193388163 -1.875473982 70.88154423
-2.08363952 3.295323164 119.7529891
-3.862638222 -3.292336819 121.5876111
-8.63088852 -20.23399026 120.5033082
-8.467744831 9.134149875 103.3931146
8.897989843 3.149585085 116.6998181
-7.817176399 19.18979058 151.9545673
-2.240655004 -0.3355291996 112.5329034
5.469699636 -0.0955164735 122.8075714
-7.933138546 26.59766511 163.6614465
1.60784908 2.094005373 87.38108093
1.627556827 3.295538338 119.1927715
2.893929123 0.1137676055 70.49080083
0.7568803747 -2.177143119 109.8325437
-7.418572682 1.750068354 117.9031756
-7.816324827 21.51627871 152.7223328
0.3279638693 -2.718467702 80.76825323
-0.9543434909 -2.785711573 67.03502823
-7.212573133 -41.2889504 120.0362767
-7.087493445 16.28281965 144.6439934
-4.204819537 -3.290830562 117.9387108
-2.902653286 0.6566281454 65.33048499
-7.091568275 16.49911816 146.8114242
-5.03369496 -0.6771254451 122.7975346
-8.200307065 -41.82950549 120.2834593
0.2691709936 3.135608449 116.4975662
-1.108654262 2.747767797 66.46813542
0.2063796792 2.38214998 103.9594442
-8.729285299 6.676081741 105.9339373
0.9878618001 3.295516099 121.077671
-6.919918814 8.185383956 105.3818689
9.185803547 3.292772273 122.3411269
-6.729806276 5.817320317 109.141758
-8.033841189 -34.27209271 119.5985945
-2.446249009 -1.339143379 77.34679627
1.113424426 -2.641968236 72.91717643
1.612128889 -1.952948009 94.4938061
-0.8031675643 2.22507893 105.8657076
4.136674983 2.859408166 116.0314883
10.92209699 2.504627008 116.145538
0.1668516661 2.232410331 114.1887274
-8.474557951 7.125801599 131.5072064
15.13542473 3.098881366 120.7358014
8.423745522 -3.295516488 119.0133606
-7.345857611 3.622649111 109.4666085
2.172188139 -2.115032009 61.810295
-8.364508296 -19.63052168 119.3849205
-8.461315667 -23.28859151 120.7067689
-6.742899611 4.894909412 126.2655334
-7.888246942 -43.50288706 119.8130832
-8.714273622 -11.27379181 119.6340758
1.296342322 0.5599117656 115.5767822
2.85640641 -2.829270887 115.7992801
0.06755513029 2.52244472 95.52861769
-8.127542296 22.0476074 155.0561226
-2.574884502 -0.1838504661 115.577084
0.2712207825 2.995435375 62.70002858
-7.654496591 4.782397102 128.9124286
3.411711882 0.652985942 122.8075714
-7.973548333 15.68468656 142.3247516
-8.368595718 5.581758627 126.5807466
-6.783283514 -14.95933901 119.6241805
-8.117652282 -35.7552456 119.7408982
0.8612528878 -2.106181044 112.348717
-7.981749929 -39.67363055 120.8771729
-8.780033306 4.903195043 109.6222065
-2.786178781 0.1782848268 77.24195102
-2.641483667 -0.1874575314 86.81583185
-7.313560799 -42.85184051 120.6840455
-5.638779347 -0.3463278683 117.0967684
-0.154318931 1.723415802 122.8075223
1.3264136 -2.34759237 83.56925433
-5.018086993 2.532344657 121.4956712
14.57473329 1.687252574 125.2808859
3.575246369 -3.295518585 120.0243084
2.467759569 -1.492887537 71.22876836
-7.718428956 16.74410972 148.0679377
2.030495667 1.654628892 88.6800935
-4.465451117 -1.394839275 115.5815231
13.23524172 -0.6219670966 116.5735471
2.437406743 1.815618807 60.80240148
2.70797072 0.4763988546 80.4943052
-0.4772362778 -2.534083642 92.06600252
-8.71074109 -13.78673606 119.9567335
0.9281732839 -2.311557725 97.90014675
-6.967166515 -30.44775264 120.0256247
-1.702502751 3.295364398 120.920723
-7.375377598 4.654003391 124.8898932
1.799901501 2.152973712 76.1798932
-2.195737929 1.855908997 71.59094723
-7.941827408 26.78133349 72.10466483
-8.12900214 15.04475152 144.9208217
-7.307157324 3.322474265 115.0501776
-8.002467727 -4.688215591 120.3484077
-7.374257237 16.84486415 148.0332505
-9.267563094 -1.846428933 118.167377
14.59489701 -0.5523983418 116.9020614
-2.415227314 0.6584221314 96.50247689
-0.168579332 2.821046393 74.98440821
-5.966988574 -1.074728467 117.6967314
1.914278595 -2.062574111 75.99988488
2.363655922 -1.794703935 65.50387114
-8.553926154 8.794328342 133.7183776
0.6820149599 2.181306721 111.0211815
-2.430366632 -1.054813695 87.25125654
-4.510639284 -2.739024628 116.1878082
-12.28165109 -0.1014735962 118.9958026
2.778948324 1.015230267 66.28604094
-2.49594161 0.7440086317 89.67262347
-8.774815902 4.563768391 110.3989104
2.420482856 1.453213093 75.26995052
-1.814665921 -1.548496375 104.3462892
1.188142471 2.011100662 115.577095
-11.85825363 1.051579373 119.1065935
-2.764792229 -1.962664794 122.8069857
4.208035041 -3.295352124 117.275319
-0.4841706804 2.743398482 78.08484821
-7.72666073 -7.514405408 120.6290297
-2.183142192 1.598436221 83.170501
-1.199380828 -2.632239348 67.62392184
1.568089291 2.473970723 68.49104195
-1.243974504 2.185052114 95.76075508
-7.987648148 17.13780703 89.92604925
-0.6196678275 2.495202003 92.13520428
-2.738469052 2.569892732 115.5810284
2.307701923 -0.1942340641 108.9954149
-6.603637752 5.856576002 107.4496299
2.196282726 -1.079769486 100.2762077
-1.504692945 -2.061906186 93.41866613
1.701407117 -2.045106302 85.93831492
-8.134394948 21.60722581 80.7058212
1.484124509 2.005677451 97.20060456
-7.262074162 -14.33577585 121.6679601
6.461572638 -1.102888625 122.8075714
-8.193602872 -39.11090133 120.0297314
-8.549823112 -12.38411581 120.7554226
-1.00024167 -2.041641774 111.908546
-6.626816649 5.736277034 108.1677269
-2.34970277 -2.894225698 116.0967518
-6.955923585 5.40238394 126.4386568
-6.66634371 7.419016788 104.9134264
-8.540573818 7.405077932 106.3267305
12.88775512 3.181508637 122.7972072
-8.50978209 1.600629017 120.8925745
1.908334857 -1.772387577 89.99923223
-1.123600497 2.616144263 74.1206878
-0.9563802364 -2.442955819 88.9398191
14.56143928 -2.271400702 122.80411
-8.266361224 -37.30870332 120.4537435
-8.557581441 9.433623062 134.6513196
0.8481971023 1.987221934 122.807373
-1.782146105 -1.9872624 85.50299976
0.4919094645 2.224348557 111.9576088
-8.199629206 -18.78394914 121.220614
0.8610119776 2.244877571 103.474747
-7.950271507 -42.59965161 120.8312581
-2.481424822 -0.06532742462 98.27380973
-2.258849613 -0.09708778305 112.8851091
8.088722295 -3.295516642 120.5271235
-7.236417999 0.8831942272 115.699354
-0.2007713897 3.295537398 117.789736
2.430269693 -0.02089429415 101.9712829
-8.018460565 -22.62690747 121.5070352
-4.780712106 2.529719432 122.3545968
2.913219537 0.8272928419 61.33950979
-1.894902765 -1.664760587 95.2619482
-8.577704511 10.33515433 134.6678771
7.805081743 -1.924587727 122.807408
-10.756258 -0.8888581295 120.9752426
0.1303350938 -2.822450695 75.14086504
-6.8898424 9.579104083 100.26131
2.426564271 3.295538289 118.9142048
15.13944212 -0.04499977439 122.489462
2.505120964 0.9020516841 86.01557249
1.52077431 2.170631972 87.11389403
-1.468448194 0.04162070479 115.5768345
1.086627852 -2.296082916 94.17099992
-1.825141339 -1.779119834 94.01600989
-6.774298415 6.525106177 107.7867047
0.8969292178 -3.295519355 118.6468861
2.277220389 0.6350531748 105.792098
-8.3824394 10.59951739 137.2255835
2.379573649 -1.586771365 73.47117423
7.598110026 1.744565042 115.6642221
-8.774493026 -10.54002205 120.0286987
1.382778311 -2.458244538 75.26263697
12.33500016 -3.295514672 120.2090098
-7.770306481 -3.148357752 118.4812614
0.2258086921 2.397725193 102.794993
-6.584325704 5.167156359 108.9949247
2.280671314 -0.7315022659 103.6976657
-7.872428465 2.501549289 118.9571394
15.14303303 0.4396020588 118.7279703
-2.374234099 -1.358928769 80.97198374
0.2060801967 2.380570708 104.0665603
4.58394759 -1.305878269 115.5772636
7.357760133 0.6190820942 122.8075714
-7.177544461 7.71005136 128.5635342
-0.9874007704 -2.629806472 76.37457132
15.1373789 -2.883561401 122.3906357
-7.56655009 -28.04873656 119.2503874
-6.968192068 -3.288742397 120.1653918
15.14078705 -2.74131632 119.9665103
-1.065583501 2.228304871 98.83484724
-7.836074373 -39.57689325 121.2168887
-7.628224875 24.88546481 158.7797865
-8.708407297 2.304478182 119.351877
-1.656299967 -1.508423805 114.237427
-0.5334543389 2.238511605 110.2439367
-8.479012856 -6.76646357 120.1892277
1.577402666 1.91695448 97.83009154
11.99319224 -3.295120814 121.8387232
-1.817831044 1.388909238 110.9568209
1.946649603 1.26555513 109.146797
-5.349001862 -1.418776929 120.1030163
2.406071163 0.4231903473 100.9444336
-2.252749526 1.986268398 63.10945949
-1.808052179 3.295373322 119.6345358
2.974281985 3.295538799 117.9578847
-7.438969422 -45.24305463 120.7947724
0.742100856 -0.4428056452 115.5767822
-1.353739632 2.721330789 60.65589505
14.75919715 0.0654165554 122.8020674
-4.56709364 3.011555137 116.6800183
-7.864812829 25.11772614 75.46828229
3.316659275 3.294566149 116.9998146
2.197264455 -1.18398923 96.93135235
2.93295462 0.3144037951 122.8075714
-7.660916594 14.95953327 89.41971053
-7.231756156 22.99271313 78.63811996
-1.537144916 -2.620521729 60.81913978
-7.564172111 -8.542070811 118.6064099
-4.393482656 3.289360923 118.3579645
-7.911651434 -39.69646796 121.045642
12.74886139 3.295468541 119.0297787
-7.378942586 17.83040861 149.6113203
1.903052601 1.173406712 114.6254672
-0.4000679006 2.788561636 75.62927787
-2.799557719 -0.5030830316 74.22109237
2.486097134 -0.6270142311 92.5748233
-8.391766233 10.69883749 98.31425793
1.185477659 2.366285838 86.91203466
-8.409063695 -18.16528218 120.9419526
-2.195220804 -1.489257337 87.17921292
2.512963737 1.289108483 74.9887888
-7.960951939 26.13991251 162.1397757
-7.009797681 11.37162591 138.5499834
-8.68601476 7.249104168 105.5048099
1.435178916 1.942383351 102.5514918
-6.922594825 -18.13038591 119.454485
-6.970086968 -16.65380111 119.2950266
-8.177878271 7.266489762 107.731522
-7.588211467 -13.69360025 122.2762713
-2.749205476 -0.02074053097 80.73675267
-7.8276097 14.98112724 89.78136369
2.057370975 -1.577424101 90.56637198
5.601865311 2.098725814 122.8073094
-7.546764437 19.11786302 83.31612905
2.126133307 -1.625502892 84.96951006
2.060975318 -0.9279014318 113.0496213
3.6969293 0.6371366186 115.5770284
-7.854522778 -19.94901417 118.9898028
2.66768996 -0.2652804219 84.56067309
2.82580461 -0.9731528086 64.10313489
-1.776853806 -2.358788117 66.51317015
2.049239395 -2.012605178 72.51628962
-8.154596895 7.55238572 132.9547313
-8.16058855 -15.62232264 121.4521185
-7.16939836 -34.28952128 119.7616319
-7.402070667 -7.833013472 118.6408278
-4.332286149 -3.240978418 116.7502687
-7.366970726 17.40714382 86.68147581
13.3401821 -3.295230037 119.7353392
13.02294357 -3.295343193 120.7147584
-7.14202616 -14.41411657 121.3657251
12.36436825 -0.8114142319 116.3882358
2.618905051 0.2929502817 87.62751641
-0.6335049941 3.295258091 121.592379
-7.371083536 2.565896143 116.4347789
10.15697738 3.295540933 119.5502057
-0.3145672455 -2.565190857 91.06156503
-7.144408973 1.853442611 123.4418846
-2.057115869 1.137721229 106.66042
-2.895888429 0.4111452014 68.41018028
-7.359566367 -15.53037516 121.8504926
-2.182773275 -0.4827937172 114.7956112
-8.233929185 19.53386874 151.5708969
-1.565199794 1.729470691 108.0442876
2.207940459 1.980967567 65.65191591
0.4973009983 3.278998893 122.750557
0.04048551627 2.375628292 105.4815505
-6.781453237 -13.39079861 120.8299691
-8.483062638 6.612824037 108.1583524
-8.240546887 -6.072482215 120.3892542
1.404072533 -3.295114297 117.0579451
14.78854647 3.289431913 120.8691399
2.54300802 -0.7106311736 87.30726734
-7.384864072 26.65820667 72.20634557
-0.4349657909 2.646499415 84.85930608
-5.379063781 0.2665997365 120.8605952
10.8161148 3.295541348 118.7492855
-6.94701148 -15.71165275 119.2841145
-0.04074657126 2.378370544 105.2972427
-2.209356606 0.3321529141 114.6390877
1.619470161 -1.534379111 115.0406157
-8.460186338 -27.55473273 120.0859653
15.14156789 2.141652981 122.0662975
-6.145713015 -1.670913143 120.9450542
-2.395595886 -1.700780123 67.8384852
-1.916922987 1.161773367 114.1738856
-1.418775631 2.43292766 75.62190322
-8.997734695 -1.381877181 121.0995431
-7.344699605 16.37633418 143.8248078
7.45367119 3.295348311 117.3408063
-5.458330792 -0.03002286676 120.8966135
-6.418331439 1.003666444 117.0313993
-7.389415236 6.757266935 102.9441283
-7.719482279 23.6129757 159.0853719
0.7905003785 -2.533454163 86.36740315
-2.064012275 -3.295317218 119.0150349
-8.143063536 -5.232037703 118.6455663
2.727664393 1.198308909 65.18414343
-2.804575653 -0.8197820536 68.44090779
-8.034088444 -46.25946827 120.057089
-2.39959097 1.747714755 65.64024675
15.14270449 -2.21892688 120.3677724
2.748723512 0.9741907953 122.8075714
-2.093304953 1.726280254 82.39051542
-7.335172267 -21.19107408 121.5574079
1.56062054 -2.098125647 89.17176553
7.567482018 1.866998361 115.6602283
-8.127884704 -24.13725413 121.1715199
15.1426864 2.247913401 120.7767706
-2.656186202 -0.07818517457 86.55348436
-6.695062109 -8.107258485 119.9437587
-7.936579645 2.776369628 112.0470274
2.012383576 1.654179697 89.63588012
-0.03798271263 -2.62936585 88.6024422
-7.313832063 -38.35727148 119.7659471
10.86497282 -2.228639354 122.8072357
0.1373668345 2.42449221 101.5927574
-8.776355158 -1.753499376 117.7993579
0.7919672275 -2.859283675 65.47825597
0.1489524453 2.343757171 106.8923187
-7.742049912 23.50113253 76.31045509
-1.844837873 -1.519085245 104.0341823
-6.883213824 -17.28370769 120.8805576
0.9150998498 -2.848506889 63.77683361
-2.285365694 -0.01332177983 111.6689207
-1.209946348 -1.87504747 115.1245755
2.706612309 0.5974353307 79.03142643
6.078381752 3.295539705 119.9561186
-7.982937356 -24.9631092 119.2050206
-6.925853907 -19.11506749 119.5025431
-7.238465569 -35.65816237 120.8048231
-2.607695795 -0.2363005454 88.74519836
2.279176373 -0.8520497311 101.4522011
-7.828644551 -42.88527771 121.1062295
-1.44516777 2.099578259 93.99764926
-2.563724268 1.335809746 70.52075956
9.128022304 2.915215704 116.0366931
-0.006609271193 2.833720937 75.20266659
-4.33712207 -2.370872708 115.5875337
-6.941141081 13.71696706 141.8511984
-7.979005422 12.07862446 94.79379241
-1.630252804 2.444936346 68.24362763
-6.80659963 9.278623583 132.5174721
-7.691821373 11.01316133 101.3512974
-7.939217287 -39.64458421 120.9805454
2.456749202 -0.72205868 92.60791225
-1.628289915 1.755482581 104.0212171
-0.1783948827 -2.782890697 122.8051321
2.535880663 1.427327818 69.27733431
9.212088189 -3.289063051 122.5698356
3.77466027 3.295539029 118.0528046
-0.06724155909 -2.924204825 68.77960299
-7.330676441 9.948848064 103.0648468
-8.62063339 -20.69316488 120.5005044
-2.238399286 1.773883588 72.86605769
-2.36307808 -0.8637941874 95.85233469
13.67962623 -3.29510837 120.6493742
-7.431444967 -31.05217307 121.3757696
-8.238315874 19.6524015 151.7187218
3.023599454 3.29528934 121.5221986
2.635304475 1.467201583 62.15329551
9.002062449 2.666791173 122.8057251
2.733110994 -1.121564473 67.15536102
-1.595338741 -1.94823784 95.4017158
-3.363784795 -3.292454295 121.987753
1.647524535 -2.23514055 78.39718622
0.4461575352 -2.754471403 77.59597009
2.014653677 1.894169872 79.33237867
2.693363872 1.217383375 66.6064513
-2.589850212 -0.01606784167 91.37762372
-7.752847609 -15.11005261 122.2525085
-8.004091597 12.16239644 94.7788176
0.6678887498 2.112074829 115.7280281
-7.197352909 -34.76848562 119.7474462
10.84943808 -2.31753173 116.1336743
12.9564253 3.295394362 119.1951029
-3.438030567 3.293994904 118.7443767
-0.6003872133 2.453237853 95.1963703
-6.849679454 4.578557871 108.8659608
-6.039038377 -1.638870038 118.2916282
-8.052989817 25.24752341 160.9467603
2.240344885 -2.839819769 115.89052
-7.046653603 -10.61078969 120.9661019
-5.847276748 1.508328623 117.8481067
-8.127115048 12.95377339 97.33935585
2.292900401 0.8187621659 101.2203252
-0.185123258 -2.972874171 64.76606324
-1.317950004 -2.007093456 103.9270461
-6.754021201 4.538378399 127.3543581
-1.928052681 2.310232718 62.60749111
-2.207579653 0.7002625377 108.9842319
11.275168 0.6417840278 122.8075714
0.4602773665 -2.601333018 87.69960602
-6.987013973 15.68503526 143.9507137
-7.166456127 2.50119686 121.6784761
-7.715068666 4.493606762 128.4395254
-8.054776854 8.724790241 129.4732947
-7.108126351 -13.62130196 121.3319018
-7.967987111 10.14916883 102.73983
8.650908728 -3.147150713 116.6568126
-7.634641213 26.8089866 72.21869544
-2.012832965 -2.077073028 71.06703625
-8.620387891 9.029343915 132.3602508
-6.781963187 6.441661278 105.4673103
2.879148794 -0.2811031375 70.37749758
10.48158158 3.295541238 118.4083592
13.98227215 0.5283542719 116.746556
-7.579731618 5.725877827 126.3208072
-1.289906644 -2.030555264 103.4271412
15.12453379 -2.095393647 117.0707965
12.17053817 3.295541758 119.3685194
-7.46232103 6.297982145 131.2542229
1.019169222 2.761797223 67.30783767
-11.86750056 -0.7463234657 120.2317973
0.4277671112 3.291078669 122.5063696
6.671346622 1.495891435 122.8075714
-6.709513319 8.284832953 132.3664004
7.695898396 -3.040924262 122.8018308
2.097826002 -1.259178912 100.4272983
-0.9944382365 -2.299765972 96.86113808
1.838757651 1.830829595 91.11776763
-2.420580024 0.3220648245 100.6414971
-7.066798528 7.685235769 128.8704307
0.408083521 2.579123778 89.52164958
-1.71034917 -1.70527982 103.0868463
8.764221171 3.295540588 119.1785788
-8.260099327 3.28675888 111.364688
8.257758096 -3.295516579 118.1912315
-4.489923535 2.412123257 115.5965953
-7.416945135 -8.597832831 120.6580577
-1.140515113 -2.708655964 68.12790872
-7.832534454 7.834507886 100.8878441
5.392411326 3.295539274 120.0729135
2.527070223 -0.2375159165 94.10550969
-2.376575063 0.4533612519 102.7104481
1.136007602 -2.739716964 66.43737768
2.690779045 1.123598479 69.71683448
2.59678493 0.446120267 88.09586238
-1.751013066 2.296346326 70.83992498
-0.1319358374 -3.295371528 121.3294967
-2.850047392 0.5626750251 70.46868602
-7.715462888 26.84461999 72.42548972
1.11957196 2.730276586 67.37595337
-1.436922983 -2.258835287 85.32099766
9.672012727 -3.295515919 119.5591159
-4.356483097 2.684235799 115.6247754
2.204493409 -0.5666564756 111.7763332
-4.513910628 2.036670955 115.5861163
-4.017525827 1.855091921 115.5800179
3.867123387 -1.35128448 115.5770642
-2.260689748 -1.836063154 67.68300908
5.108213802 -3.295517822 118.3633589
-8.426360611 12.33067976 97.47568879
-1.327860058 -2.131832181 96.25437254
-2.989144096 -0.1938730348 63.62574296
-7.638542143 -50.74956991 120.0166032
5.811586692 0.9096442491 122.8075714
15.14303303 0.07628767959 120.9456141
5.400347939 -3.295250764 121.5569497
1.071901205 2.485302934 83.47151818
-6.713578128 -19.36989819 120.4254245
-2.119483463 -0.976165821 108.0751283
-8.111264242 -15.7768957 118.9507276
-7.358251918 19.93907975 150.5227007
1.395907204 -0.8891089286 115.5767822
-6.653323281 5.302877028 107.9052961
2.35853037 0.4176470144 115.5767822
-7.952215952 20.71627985 151.7994651
0.2517087846 -2.623375056 87.59976854
11.30199183 -0.7424919768 122.8075714
6.907457837 -3.295517256 118.992445
2.65557003 -0.03741921817 86.8619152
-1.133327889 -2.311949734 91.76190036
-8.007200366 10.93444071 96.67431832
9.911979407 3.294294663 117.3090638
13.60815037 -0.8918413112 122.8071914
-2.051635897 -1.505158904 93.93014416
-7.073114822 -29.58247415 120.7615856
2.394668563 1.784834724 64.3193355
14.7521915 -3.289919818 121.63993
-8.017459315 -4.685705691 120.4197534
2.41208531 1.484239491 74.78691432
-0.5177027717 3.29553749 117.8673839
-8.15266381 -1.827761635 121.0271
-6.822463151 7.039660017 131.1424202
-7.06529532 16.60431461 145.3570188
14.44894527 -3.292753132 119.1974241
-7.990107767 6.595889167 131.6393043
-7.938480153 19.6500307 152.573656
-8.309951868 13.84928984 140.19806
-8.754892557 5.41798353 108.6605725
1.917902927 -1.514754637 100.4392809
-1.468442598 -2.472367245 71.72762573
-0.7872465417 2.388097073 95.73788157
-8.330109406 3.749916921 113.9092487
1.922331495 -1.571437123 97.80443789
-7.207692988 8.853818205 104.8594737
-8.243963239 12.71731067 137.8306294
-1.967084514 1.498736307 95.41986731
0.5430461092 2.522125399 91.89957972
-2.459092016 0.8844360195 89.30458044
-2.36277359 1.244574432 85.25519638
2.61512658 0.5794056726 85.23882327
-0.7593556228 -2.219280814 107.086679
-7.615148174 27.43282981 163.6429145
1.188169236 2.045770004 105.7391074
-2.263494773 0.3859395588 110.6817199
-8.642360049 -18.9081376 120.3123846
2.796246913 0.1493187766 76.76157648
2.333961654 -1.637521412 73.7109846
0.2214627164 2.931191461 67.30385053
1.240322938 1.944536605 110.0675037
-1.006992958 2.690956364 72.07984185
-7.139119088 13.90283338 142.8977119
-8.583086405 -18.60225085 120.6871235
-2.777195307 0.9304736122 68.04434224
-0.005623601043 2.714757256 83.13006548
-8.231089513 19.70082308 151.0798092
-1.188250354 2.75314191 63.99820333
-7.391822219 18.90467612 86.71201189
0.1806246597 -2.375777747 104.5514386
8.756583707 -2.110134121 115.8280195
-8.246430207 -38.54586942 120.1166512
-8.085283816 14.07349611 143.4557796
-7.192195706 16.72233397 88.25762926
-7.605165281 25.90498607 72.61760171
2.312626379 3.295491285 121.1292901
-0.2059224388 2.759779655 78.81882008
1.612267902 2.14705313 84.45000904
-7.117580288 9.952722483 132.5961019
-10.37901317 1.655869486 120.277046
-6.868823878 12.60947314 96.4041027
2.350361367 1.738495264 68.57764536
-2.587198914 0.5326341082 87.93518606
-8.66531133 -16.56096066 120.077329
-6.818870576 2.155147036 115.4110769
-1.529599357 -2.327846637 78.32619046
-7.506112116 20.55802114 81.22931493
9.262391883 3.069816294 122.8009025
-10.17915248 -1.206203181 117.7103744
7.352438953 -1.559495517 115.6313804
1.357336839 -2.152050091 94.13179265
2.881012696 1.320314133 122.8075714
-0.7449393894 2.631396456 80.98256357
-8.501076861 -25.21443233 120.0517758
-8.14696093 6.504449005 109.2484376
1.037769079 -2.505755042 83.33851866
-2.434985415 -0.500125873 98.31151413
-0.149971848 2.419264604 101.8581525
-8.521354537 1.674270209 121.0624287
12.55311679 3.295392693 117.8874118
5.374894379 0.674758542 122.8075714
15.14045573 -2.740865013 121.8059936
-3.069118471 2.525917058 115.5813401
-5.990942526 -0.07743665618 120.9481488
-7.861495442 8.733043033 99.57509368
-8.083249701 12.20003098 136.2008037
-0.8953845075 -2.549311211 83.31520129
-6.74943352 1.393120579 115.8409808
-8.182775152 14.28417116 92.13725023
0.5436497245 -2.43984863 97.15449993
6.985131949 -1.910604073 122.8074159
-0.7534900464 -1.412934164 115.5767822
12.48313644 0.4278204352 116.4091272
-7.424412818 -26.76773393 119.2514323
2.545762384 0.1541998977 93.40741526
10.88322655 3.295191257 121.7546283
2.835838942 -0.3071771314 73.09017566
-7.472597115 -32.87544233 121.3868612
-8.692375169 -7.235148209 119.634973
-6.879136469 6.258814246 108.9410474
13.4378446 -3.295194957 119.0631384
1.837686748 -1.429266868 108.2162828
-2.129008612 3.295291658 120.5848064
-7.16644439 5.673787701 110.7546809
2.129298192 1.761482764 79.03494093
-6.999561735 8.766887274 104.5324357
-2.800825381 -1.053453695 64.14280037
-7.886361382 -9.872528055 121.059066
1.146173819 2.409574281 85.59740793
0.3170292937 -2.361692941 104.5947124
-7.219274383 7.77445071 128.5316198
-7.681972772 13.23376651 97.3018344
6.515313451 3.295539636 119.7737855
2.712586474 0.6909261155 76.83320831
1.126587513 2.486730407 81.66255638
-2.263049061 -0.8802055958 101.9378203
-7.429741332 4.197479087 124.1374894
-7.501063916 19.87643034 82.2966089
-1.886230845 -2.294057524 65.21854072
7.684139594 1.983114937 122.8073748
-2.81149878 0.9493524088 65.48143527
-0.753209826 2.855473198 66.47564685
2.693663465 0.8239837559 75.46057307
-2.684846257 -0.2598892543 83.45364138
5.937193895 0.7182342352 115.5803656
-8.724283699 -16.0939039 120.5486889
-8.553510066 9.582295696 133.1134219
-8.075646245 -18.38470539 121.5457331
-7.534391287 -32.77225245 121.4870629
-1.051123667 2.09947276 106.8925822
-3.669991295 -1.065415677 122.8058562
-4.44891857 -3.149290878 122.3207123
2.830897007 1.078880458 61.72391845
-1.0005158 2.369950013 92.5292472
-1.098961463 -2.019579267 110.0968681
2.207584145 -1.975942614 65.88314043
1.69225192 1.674446962 105.3322572
2.025410802 1.29753986 103.4907753
-8.466318798 0.09739051411 116.8426664
1.053324611 -2.347284226 115.5784623
0.5463703811 -2.981670365 61.81143115
6.347332637 -3.295517299 118.2823802
-8.549698629 -11.7487999 120.6493891
10.53604441 1.576511727 122.8075714
-7.361160865 -14.74744443 121.8816549
-7.82654354 13.61418914 143.0154713
11.7114523 3.295541931 120.7722995
0.4201871245 2.900217011 68.0630244
-8.027499185 -41.7146007 120.7372505
-8.664594036 5.649706138 109.3390274
-3.548552363 3.293608831 120.5528127
-8.010492472 24.81236603 75.27612574
1.273499473 2.627288556 68.73552547
-2.169239057 1.532584378 86.68455262
-8.546541985 -23.60449139 120.3065337
-6.812462362 4.127351555 126.923912
-7.839954484 13.4977998 92.11869332
3.15255576 2.681855255 122.8056561
-4.393754632 3.287271527 121.2178362
2.55433782 -0.3887666262 91.29811554
-8.646802546 2.487451677 122.9118818
0.380040935 2.682101592 82.84902636
2.225106834 0.7549664305 106.7997151
-2.549998166 -0.04259629963 93.85709064
0.3487999669 2.521709399 93.73320753
-6.882674321 -12.8528768 119.2595664
11.01546185 0.7389744744 122.8075714
-8.031123367 10.50728982 137.8607872
-7.740793403 14.82677964 139.8118909
11.80720404 -0.9995725481 116.2902313
-1.590745414 2.202944929 82.47286232
-0.1928892175 -2.556244264 92.45517553
-8.388369996 15.40068817 91.72131261
-8.220864242 -39.90920071 120.3798942
-8.126793675 10.48772373 97.90050692
1.397439448 2.8175189 115.8100495
0.956346378 -3.291366057 122.4955497
-8.13645444 -21.91934355 121.2444067
0.4583379096 -2.205209146 113.8337482
-6.691805404 -12.57296832 120.6081362
1.979643399 2.56125537 115.5800124
8.44816765 -2.624788499 122.8059473
-0.4128797158 2.551178334 91.35087422
-5.590579189 0.8643021564 120.5845977
-8.770935782 5.954545635 106.9501139
-5.727911041 0.3792253048 117.8143323
-7.667258532 14.0010698 90.88665166
1.275121243 -2.285414498 88.85568474
10.42093372 -3.295515608 118.0624726
-7.338434746 17.74930919 146.4537541
-8.806219175 -2.525044376 119.7107047
-7.802939789 25.72502833 74.42633302
-1.733870197 -1.969431467 88.4741613
-1.135420626 2.236849966 96.12807886
-7.954492141 -34.72378768 121.1509785
-7.925567236 -18.28215786 121.8609612
-8.650891344 -18.37583199 120.2868751
-0.2344675573 -1.426738852 122.8075714
1.80179078 2.330025355 66.9429307
-6.864646095 12.6266855 95.86655303
-2.182041184 1.737632956 77.3194192
-7.24694821 -19.13461547 121.4258315
-8.280894552 16.9877783 147.5148211
-4.972045638 -2.811978799 120.9927658
15.14303303 0.3559974956 118.3415197
-0.598316123 2.867294332 68.72710602
-7.404209294 -38.71884164 120.9839416
-7.547033795 -15.17439134 122.1523831
-1.803156258 -1.454316862 108.9388686
8.48013184 -3.295516812 119.4776044
1.586541891 1.917432987 97.41743973
1.791988698 -3.293283154 122.2379166
-7.307930953 13.95508176 143.3237601
-7.284346066 -34.29329611 120.9131135
14.45188749 3.199468974 117.3131142
-7.485970561 10.06964176 131.2801023
-7.834373654 -13.72428921 122.166729
3.010714583 -0.291361827 61.55025828
-6.738795187 -3.225298966 119.7545659
-6.906333924 8.555754104 133.7987025
-7.219310064 18.20530694 149.8952597
3.108264049 -3.293687445 116.882634
0.8066431092 3.295537753 120.3260478
-6.619014351 -8.712583463 119.6146645
1.079721345 -2.052708747 108.7489136
7.88521151 -3.295516949 120.4235452
0.7427810116 -2.862477571 66.22902903
-7.33992925 -38.44578234 120.8631958
1.244639665 -2.684064913 66.29499577
2.267754586 -0.9332912335 100.6056589
10.64771798 3.294951303 121.9337494
-7.437171474 -26.07511131 121.5822645
-6.77904004 6.453314213 130.094398
-7.739272429 -1.597005018 121.3279935
-7.861201492 13.32628295 137.3965604
-8.432006077 2.250983579 124.0323435
14.76554909 3.289858828 118.1943528
-1.774268063 -2.419226312 63.49719602
7.855695164 -0.1779240986 122.8075714
-1.14161879 -3.295476611 119.6143416
2.374188701 1.72032272 68.11665454
-8.427958728 -4.486021162 119.0492569
-1.086232493 2.143397753 103.1935329
-7.576228367 -7.177396671 120.6002015
2.297057796 1.320871385 86.72648195
8.787473737 3.295460384 117.6714007
-0.7711276697 -2.10046803 114.4648357
-7.883401889 9.605383009 130.4422614
-2.265375555 -0.9932591504 98.9277751
-0.7186086398 2.633574406 81.35450259
0.7854832766 -2.943829321 60.19131051
1.326082051 -1.824150196 113.2958079
-7.070429286 16.5145281 88.90575338
-7.228734809 16.55243992 144.6331303
-8.364216834 7.658376752 129.07166
-7.252392559 20.50601723 153.610222
-6.782426841 10.6661332 98.99498187
-8.609559268 10.44462217 135.5791807
-6.90421284 13.64019821 94.1215776
-7.172954268 -11.66645893 121.3611174
-8.636349872 -19.09138877 120.5975754
2.896072004 0.07420694027 70.60755152
-7.808396616 25.6521746 73.22307988
-4.645896279 -3.284510665 118.2411269
6.891431551 -3.295324881 117.2897542
2.816951048 -1.15165854 61.20318668
-8.775849006 5.620951101 107.5353248
-8.515386149 2.311305685 115.3217438
-6.750856819 9.741978811 100.7975307
-4.883561941 -2.350043923 116.469382
-6.983153389 15.58276067 144.8743221
-6.773674561 1.506876197 115.5267929
-4.984623249 2.763292195 117.5437781
3.555515664 0.94926754 122.8075714
2.652922954 -0.2795258456 85.45047528
0.2187371481 2.406265535 102.272728
15.1430347 -0.6510406707 119.5098827
2.325449481 1.656196007 73.35913662
15.14022681 -2.846338867 118.0429918
2.214341849 -0.6891623516 108.7665898
-3.343038604 3.292470761 117.0428619
-0.9376303896 -2.090547424 110.9975637
-8.194925227 -18.79738132 121.2317282
6.125759497 3.12101224 116.4621446
-8.484551913 10.07642677 99.53215021
2.211392498 1.856179503 67.61350781
12.30280136 3.294327906 122.0570233
2.055367483 1.610087583 89.28427653
-7.297674054 23.81944609 76.96393626
-7.879328973 -27.77207831 119.2687356
-6.813578605 8.55504442 102.065773
2.476680234 -0.1112060842 98.28892172
11.83508465 -0.1460692781 122.8075714
-7.552634939 25.53226247 162.1224003
0.7557996057 2.434130689 93.40136518
-7.584998243 21.69007182 79.21324043
-8.485712859 11.45343826 97.37737328
-8.349128662 6.870182604 131.4749939
-1.852325972 -1.464114694 105.980062
4.912872885 1.041987946 122.8075714
-8.218324853 14.08186793 92.5505934
-7.76677934 10.41052775 131.5596172
-1.124287432 -2.201026689 98.59195306
-3.145107508 -3.294480974 119.7437898
12.26924348 -3.295208513 121.6872693
-8.719385084 6.243577483 106.147322
-1.332703969 -2.021192584 102.6298199
-7.944595742 -21.6664255 121.7076356
-9.247641601 -1.024976055 117.351502
-6.666202822 7.469889574 104.1484435
1.345566929 1.819404144 112.7152186
-7.036634043 17.92201351 148.1788963
6.641635831 -3.29551685 117.7032155
2.437699051 -1.801750716 61.37544897
2.561667885 1.598053301 62.3713101
1.763398628 -1.954517122 87.99221242
-1.165765387 -1.891589615 115.5419134
-5.154678755 1.3967896 122.565931
11.42700051 2.542791248 122.8063902
-1.926239348 2.136567625 71.66608691
-1.69562583 1.983130182 86.23334236
-7.629228001 19.25616586 148.1387589
-4.654062757 0.180978968 122.8028327
-0.7887149692 2.698339944 75.84638015
-8.664704409 8.683372999 132.1538988
12.64786165 1.608509393 116.4429806
-7.253174297 24.00246258 158.8680465
2.709243535 -0.4527171769 80.56477903
0.2285771243 2.629588021 87.33878304
1.723396091 -0.2887834143 115.5767822
2.519521315 1.019205256 82.81831471
-5.944068096 -0.2138500764 117.0658689
4.353679277 -2.316896968 122.8071859
-7.644357907 -44.98696666 119.8150832
-2.892486703 0.6951777472 65.23270148
-8.340488177 -5.942877512 118.7969588
-2.141638405 1.483507862 90.19499453
-10.36816805 1.451502117 120.5724679
-6.707690153 8.496796149 103.0633094
-1.95079666 2.333544898 60.43648796
-8.564655922 -7.549823328 120.1006495
1.146921571 2.761403961 64.81417116
2.844299944 -1.021342624 61.98310285
-8.218927467 20.75904895 153.1960693
2.80854394 0.1985298738 75.62009533
2.058442223 3.295538672 120.7740173
-5.487843735 -1.94571141 117.7413761
-8.569723648 10.62474363 99.2429281
-0.5429219917 -2.349719936 102.9389198
-7.463674986 20.38107229 150.897424
-7.288498928 4.497250828 106.86966
10.1784258 0.1983729604 122.8075714
-7.23355781 7.088445429 103.0983969
-8.250334814 11.00080653 134.6234815
-1.343300055 2.535941823 71.92398513
1.980407837 -2.208025199 65.67073468
-4.116262624 -1.940491031 122.8042766
-7.681032411 -44.57264429 121.2874145
-7.243777788 11.28245817 134.5916159
-7.827577475 -23.31836099 119.0979891
-0.2843473065 0.6787465854 115.5767822
-1.583569252 -2.338320731 75.77536059
-5.141719987 1.385931544 115.8862278
-2.393197048 -0.005381807086 104.5413203
-8.157282561 -7.628278773 120.5113021
-0.5621523869 2.862539293 69.64075595
0.9170912558 2.463913555 88.36204319
1.915633095 -1.970725521 80.69258574
-2.083968816 0.8355160353 114.2714596
2.242467155 1.116493318 96.39338817
-3.735861621 -1.250988181 115.5787793
-8.397166913 -10.49218289 120.790005
2.114216854 1.744268195 80.54556803
2.261065987 0.2798543461 111.5391851
0.8933882563 -2.691128719 74.27433047
-7.387256808 16.14421258 88.52668748
-7.144921823 18.29602618 148.2346231
-0.8732082938 2.199447327 106.1464513
-6.207833016 2.237266077 118.7311992
-6.806537901 11.77136708 137.9691776
-2.012370488 -1.66005284 122.807346
-2.065208216 -1.991717062 72.5769318
-8.63445425 -12.21641988 120.5956916
-0.03271792249 -2.290327724 111.21078
-7.214961986 -44.09715331 120.4264367
13.76974167 -1.534479713 124.228004
-7.84555357 20.47859324 150.8737394
-7.356361374 -48.69180877 120.1147829
-7.169924652 19.46047549 150.3468277
-7.048278479 12.47326125 95.30563559
-7.777797185 -40.53260414 121.2742635
-7.569458494 2.529450303 118.9602809
-7.067426329 -37.15211495 120.1934841
9.572917161 0.6825889831 115.9453392
15.14046255 -0.8218623699 122.3192354
-1.75058172 2.445723061 63.13275227
2.932727342 0.521168386 65.23587936
-1.84591354 0.1891513484 115.5769209
-2.579049028 0.6686072466 85.81618479
-11.50534318 -0.7874182817 120.5738553
-6.618119922 4.137894611 111.5373392
1.814488218 2.16012012 75.19117866
-6.953407958 6.638434029 104.7197818
-6.954163611 -5.728972987 120.2608691
-7.336235991 3.90181835 123.7274982
1.665625919 -1.854183164 97.3310909
12.34845665 -0.02411292472 116.3854367
-6.079759711 -1.669687354 119.7996706
-10.3559065 -0.9634872141 121.0994904
1.647923424 -2.048192701 88.04872482
1.298633151 -3.29551902 117.8550817
-8.385819121 13.91345465 94.65460281
-2.895337729 -0.7441454974 64.09896896
-7.697008098 22.29416627 156.9757133
-8.011945243 19.22474377 151.7853527
9.913947313 2.965068548 116.0753942
10.50448585 -3.294646373 121.9860401
0.04355987758 -2.418757807 102.5885912
-2.67644657 -0.8643092983 75.7793819
-6.76325731 1.721047091 116.8204912
-6.889660695 2.785724393 115.3299621
-9.287535136 -1.057812217 117.3890542
-2.283113875 1.608520439 77.57217448
-7.147705798 -34.00590472 120.7272604
-8.749459457 4.977727352 109.9934065
-7.225341598 14.95945356 141.6378242
-7.759519111 25.52127107 73.23324
0.6214642816 -0.5854124725 122.8075714
-7.157291939 20.73433611 82.48919327
2.551252504 0.3276463298 91.90445782
-7.803129401 3.945793954 107.5567995
-11.52533181 0.9601477954 120.2698699
1.231789206 -2.774403856 61.36990337
-8.619472287 -13.49104102 120.7796118
-4.185019487 1.417977685 122.8046275
-5.870779627 -1.330734835 120.3071066
-8.258866378 2.146009751 113.5421655
13.05782479 3.089680751 116.9755664
-1.988421654 2.071237821 72.40555901
15.14303303 0.9035141557 119.0371439
3.117610605 -1.102795438 122.8075714
1.792185309 -1.342536083 114.2506831
1.657687204 -1.918473033 94.34310623
-7.920090735 -10.531797 118.6594933
2.22108916 0.7035231865 108.0560499
0.5484942038 3.295537869 120.652571
-7.913191494 5.269226614 125.7830347
-8.335837874 3.394824909 114.5450684
-2.57223455 0.3569641874 90.31510336
1.290341529 -3.293097184 122.2763603
-2.421612291 2.818827689 115.6282119
-1.951765482 -1.503393716 99.17014401
-6.925682917 8.945424075 134.4754192
15.14265506 2.302817734 117.7878028
-6.639645878 5.815655054 108.2253789
9.615513479 3.295540981 120.9490767
-1.230251341 -2.416489062 82.53684858
0.9165442338 2.719011992 72.04025527
-8.698916741 -14.46730951 119.9801338
-7.855875888 -51.04899212 120.705101
13.04037291 2.958241405 122.8039978
-2.174695766 1.949122649 68.72286509
2.510976635 0.4766139164 93.60921684
-7.842913472 -12.79422574 118.7363039
0.3315703308 -2.796413112 75.55482762
1.836637016 -2.078927319 78.44953239
-5.598457994 0.6819283941 121.5873386
2.569612793 -0.2128791053 91.4345002
-2.550366447 -1.32374143 71.68917653
-0.5630704275 2.824843641 72.12947576
-7.23997724 16.0902187 91.57476703
-2.475657544 0.2881654782 97.19660506
-2.711476643 -0.6625431617 77.45522263
7.03670701 -2.384640339 122.8071473
15.14303303 -0.4344859828 120.6623711
-7.877813794 -37.31080276 121.2294281
-7.939826807 21.88532274 156.138206
-7.762004257 26.75325243 162.4286697
-7.82424501 7.39064102 101.553546
6.485829257 -1.378918245 122.8075714
9.362882248 1.178713413 122.8075714
-8.342612477 11.30205672 99.89263332
-8.012474017 -22.99102745 121.5064319
-1.218247802 2.416470114 82.91737
-7.495206764 -24.30338467 121.7367372
-2.171145864 2.062577377 64.09099224
-7.522774043 -2.163136959 117.8336567
-7.887831584 8.787266481 99.56553141
-7.034955121 3.626504147 110.4780236
-5.478238836 0.360271624 116.6765181
-2.360406207 1.176828286 87.53150368
-10.47977167 -1.110572526 117.7778842
-7.239804842 -2.495749786 120.387204
-1.833421232 -1.621952571 100.258561
-8.31146878 12.03131384 139.70867
2.576915139 0.669565981 85.93422972
-0.6958964875 -3.295519763 120.5585114
-6.782561282 10.4715016 99.69862279
-0.07138449767 2.659389905 86.38532927
-7.679250673 -38.57065967 121.5116627
-7.726117919 2.088901425 120.6965627
-3.219267744 3.294371627 118.7582756
-7.93340038 -35.0775672 121.1879034
7.997136975 3.295488871 121.1801653
-8.60689597 6.097748694 129.5141183
-7.623337495 14.03597266 138.2956365
-2.962423335 -0.5649183043 62.97164382
-0.910109205 2.407801804 92.09012006
1.544084534 2.828266585 115.904411
-12.11185569 -0.5202259264 118.7190918
-7.790937466 12.28962401 135.1937749
-7.484615871 3.301852129 110.9403107
-8.592049564 -4.76596788 119.9341128
-7.935213676 -54.14724404 120.4424524
8.317488105 -0.9319016662 115.7650587
-8.496755733 -7.973324894 119.0125212
-7.132680895 18.31367946 148.3222287
-2.697357068 -0.3971530741 81.72050708
-5.94341974 1.420333094 121.0661085
-8.213508749 -3.354142616 120.2900004
2.572527766 1.241993145 72.96019331
1.918533981 -1.836396163 86.75500708
0.3262324023 2.345665065 105.6027175
-2.450813193 1.751081521 62.84823394
0.1879955624 -2.551140228 92.82710609
2.036192225 1.770236689 83.4786412
1.659515542 -2.202065949 79.5987825
-1.872937831 -1.348690702 109.8130853
7.706339708 0.7347644125 122.8075714
-10.20002728 0.9261956019 121.0794934
7.198127344 -3.295517085 118.4750939
-2.996989415 -0.2019854298 63.0501859
-7.974939639 24.2951144 158.6828674
-0.2811340925 2.549455142 92.32956853
14.61544671 3.077567941 122.7980283
-8.17652444 -2.187075142 120.2606802
1.793833873 1.685406356 99.61347849
-7.209353309 15.58076121 145.7200728
15.14279622 0.5489582524 121.5898792
-7.400054459 13.44186458 142.6273117
5.020629293 1.015842404 122.8075714
2.441405617 1.440062482 74.4501648
1.122396436 -2.251196532 95.69138819
-8.072964533 22.60348084 156.9920646
-8.178256702 -43.53153496 120.2500303
-8.526922585 8.958618533 131.7948076
0.3972495962 1.516017415 122.8075714
0.3325720612 -2.599319643 88.67112819
-1.356063046 2.628266259 66.07387076
-6.961026626 7.373887488 107.014954
-7.204384302 10.26151137 98.36888666
-1.8204137 -1.304899219 114.3881769
1.980621367 -1.73863787 87.69320093
2.807270215 -0.133714676 76.1298615
0.4659311417 2.618243913 86.53758378
-7.677975174 -23.55927345 122.0636667
-7.843492162 18.32474192 150.5471371
-7.418959067 8.136209964 134.1530677
8.825064224 -3.295516072 118.2569145
15.13593841 -1.804338395 122.5941707
-8.033476777 9.211940129 104.40529
-2.306507862 1.280502041 87.44202704
-6.928688957 -25.75240989 119.8652473
-7.113349409 12.38321781 140.4338019
-6.774427991 -13.15075107 120.8087233
-0.07747374172 2.716957476 82.51238468
-4.020381295 -1.323958057 122.8050119
-7.97121535 -13.06731914 121.9356833
-8.3753913 4.722461705 108.006714
-8.350659419 -2.415591737 118.3801289
0.3009184251 2.965204571 64.51811869
-7.463451924 -1.546966124 121.3737087
1.645033919 -2.117692071 84.57704171
-6.774454462 4.320443118 127.0975703
-7.291258507 25.09893569 160.7570065
-7.272850749 -1.39024471 121.4543561
-6.648952341 5.051068468 127.0292227
-0.7412612266 2.891353647 64.41050158
-11.54388231 -0.8251823128 120.5165406
-8.450912229 13.8056021 141.7731631
-1.320928575 3.295438048 121.0235699
1.725067798 1.716930909 101.8319013
-2.19971484 0.6001660965 111.4317846
1.920212799 -1.400176154 105.1829417
3.238816005 3.295538796 117.749059
-10.59185004 -1.846650639 119.7400834
-1.02118038 -2.850681984 61.57736096
-1.668050346 1.274464359 122.8074507
1.822116575 -1.861130784 90.3297252
-7.510081142 18.20051097 88.12508354
1.586125831 3.295537652 118.5439664
-6.939558416 15.03806749 143.7315008
-7.06895733 -26.56602651 119.5714179
-7.622532892 -10.20599446 118.6091792
-2.837124551 0.9258373776 64.29747489
0.8806773386 -2.199154317 106.0190143
12.33773433 3.295541905 118.99791
-7.075449057 15.4045955 145.0512348
-6.85034387 5.102168695 128.4874409
-8.5368789 -20.996482 119.8668412
0.01645259498 -2.60788166 90.17412332
-7.732183604 3.833514342 107.7718779
-8.509983509 -23.64643768 120.6267792
-1.17889268 2.745057443 64.77035443
-10.36893768 -1.128833729 120.9957869
-7.62529439 17.2278848 144.3201328
7.799302687 -2.889990115 116.0939882
2.811680035 -3.29544076 117.407554
-6.970517045 -6.680015169 118.8524979
-8.132272789 -43.80142703 120.4468232
-1.477478092 -2.648177209 61.0691451
-7.225096811 6.092996138 126.8165557
-6.887933324 9.600159502 132.7606317
7.832096078 2.978423301 116.3302188
2.429761781 1.611501218 69.73025195
-7.651103241 -5.143095085 120.5373949
0.7843880566 -3.295519179 117.859843
-2.193711792 3.049985093 116.4011473
2.324727748 -1.527533325 78.57562976
2.696768149 0.975343525 72.3221901
-11.92557898 0.7978920776 119.9277992
14.54519743 -1.494652614 122.8044812
-1.417309238 2.259671777 85.89108628
-7.625559367 10.43537074 131.4840259
3.92218427 3.295539127 118.8914794
3.211807442 3.295538806 119.3564529
8.899433309 3.151103905 122.7982741
-1.94754994 2.16004297 69.5474861
-6.808330832 -4.119139105 119.9695186
5.323751888 2.818315026 115.7797433
0.7410281371 -2.766253605 72.42363626
-8.193580824 17.35601464 146.3894156
2.444268196 1.152402605 122.8075714
-2.427836176 -3.294830762 121.7156597
-0.2798359137 -3.29551975 119.1520622
-8.443219232 -19.25558772 119.5381633
-3.169591379 2.858299552 122.8029934
-2.942906735 -0.1258724807 67.15025541
-7.399547857 -7.754357699 118.6415726
2.248370234 0.7009249244 106.3598689
-1.153284332 2.183999032 98.68313515
-8.163983825 13.82779489 142.914056
-8.681422298 4.706749776 127.2367526
-1.073009827 2.509735034 81.99490655
-8.334583126 10.85085446 100.7441603
-5.133777744 1.501477785 119.1037316
1.261588418 -1.853011562 114.5405183
10.67971499 -3.295344858 117.6673981
14.96961361 -1.172057133 122.7976977
-4.9554774 -2.200552597 122.2743278
-7.946985036 26.24020287 72.82000376
-8.303955011 3.030103134 115.2432637
11.42557065 -3.295311901 117.6683929
12.2760838 -3.295514872 118.320786
-1.934149418 -1.301139321 115.5769686
-6.998110402 12.99593426 141.0276998
0.04044837047 -2.8038558 76.96841713
-8.511566891 10.07169892 133.8592614
2.105648368 1.933432252 115.5770413
-7.323511634 -27.05493195 119.3157969
-7.967584661 19.95722772 84.7691916
0.05782367392 2.478351825 98.52826241
-2.479509425 -1.374351715 74.2738689
-2.500122035 3.295246678 119.9626926
7.94189846 3.233849554 116.7012928
7.940737755 3.295540342 118.6198742
-2.895537036 -0.08506093011 67.56266196
7.044093098 2.866398043 116.0631012
-8.088008345 24.06469318 159.165528
1.198192751 2.721546417 65.5489299
-7.687153814 -38.38499231 121.5050729
-8.558365518 10.79572623 99.23614175
6.169226694 3.18542883 116.5470393
4.869868784 0.1818045649 115.5776909
2.877956335 0.3043216805 70.30470483
9.807222473 -0.01021957374 115.9791128
-8.267187697 19.35851592 150.9525573
-7.282493762 -36.17942659 120.8513365
-7.591235165 4.610789657 105.688811
-1.826182791 -2.233051506 70.92227632
-7.346793011 2.313712867 120.5717161
11.34858404 3.287428176 122.6251006
2.354981062 -1.827319066 64.56821357
6.041672548 -3.295517565 118.6231984
9.11338374 -1.234253033 115.8790969
