# .PCD v0.7 - Point Cloud Data file format
VERSION 0.7
FIELDS x y z
SIZE 4 4 4
TYPE F F F
COUNT 1 1 1
WIDTH 1290
HEIGHT 1
VIEWPOINT 0 0 0 1 0 0 0
POINTS 1290
DATA ascii
-8.541995348 11.25917292 98.33986629
-5.150461631 -0.7199627118 120.7784971
-8.443251209 -17.6853773 120.9097048
-7.001167902 16.51041363 145.5057767
-7.952912921 -7.227665486 118.6358725
-8.086808448 -18.68272719 119.0396215
-7.316785611 -24.3914827 119.2172458
-7.555706085 -18.85295744 122.031289
-7.216850645 6.828579481 131.8267809
-8.441798185 11.42964993 138.2930568
-7.938554637 18.94287945 148.3656281
-7.375629403 12.39744662 136.1071882
-8.278481992 -36.66787279 120.4717185
-7.722258637 -21.14244928 122.0815369
-7.517159609 26.72815662 162.7275124
-7.582705609 6.836054654 102.2635468
-7.537147129 18.02188833 146.1299697
-8.523609905 11.7819215 97.19525788
-7.882227099 -24.01454373 121.7174005
-9.854728649 -1.848778196 118.2819264
-8.355305558 -20.39922943 119.4045932
-7.653385026 13.85546378 96.15112958
-7.782452523 19.1302838 148.0899398
-7.633126082 9.027552528 98.70764728
-6.767239067 -20.66245771 120.1018384
-5.814421822 1.492103664 118.9001731
-7.142928372 20.30475366 152.8360214
-8.65327906 -8.233193437 120.0186259
-7.532444479 26.20886638 161.672871
-8.565492263 -17.76352918 119.7590667
-6.71518274 -7.461730394 119.9120695
-7.296694371 3.703026878 114.3611755
-8.207915325 12.69035151 141.0099546
-7.59795224 12.03834121 140.5077002
-8.660229194 2.824938383 123.6289941
-6.695700258 -7.090946165 119.4129085
-7.953448953 23.89191066 76.47956929
-6.742985802 -1.518858082 121.1994388
-8.464646886 -20.21188927 119.6449107
-11.07349295 1.58072914 119.70125
-8.079900163 -21.44388435 119.1421783
-7.415064612 16.39811098 143.5403213
-7.946674968 5.033311462 105.5579289
-7.127348579 8.339675078 129.5517358
-8.253872866 -7.256036578 120.4223333
-8.055179211 13.59862992 138.7331031
-8.349518783 15.49197475 144.8830612
-8.530837143 -11.90038699 119.2757824
-7.548408831 -37.6082335 119.5872154
-8.221702985 -13.89281233 121.3735867
-6.987691227 14.52681185 93.56133018
-8.390142658 -11.86296802 119.0506393
-7.42839147 13.59114435 96.48403818
-6.67511957 4.860348888 108.9411694
-7.634286506 12.07330645 93.97956342
-8.310136211 13.37202434 141.7934319
-8.382400195 6.619921635 108.4426536
-7.725171113 -34.72054886 119.4615281
-8.743553649 6.347927513 106.6144826
-8.468013162 -27.14053662 120.0984952
-8.082949844 -43.33632766 120.0090188
-9.094268762 -1.764561898 120.6674846
-6.799480938 11.8404127 137.8353672
-7.257724865 -33.52087924 119.6381457
-8.181877433 -32.08087872 120.8229758
-6.73802404 1.752618398 116.5586568
-8.434983072 8.328005075 105.1235149
-8.185031958 -28.62047372 120.9287896
-8.619898866 8.465829727 132.851542
-6.949938395 -20.63077631 119.5285765
-8.104947452 -39.00896879 120.7089058
-8.509934528 13.0451564 139.9001387
-6.713193391 4.243777101 110.2873608
-7.507315251 26.26665597 73.38275862
-8.18949166 3.083823588 111.665312
-7.156202575 -15.66562041 121.3477816
-8.165252386 9.093976913 130.6561522
-7.818031824 19.54466261 152.5219011
-7.343322029 15.84440349 92.25447251
-7.270431615 20.62296504 81.93267295
-6.988151913 -2.442824513 120.2143886
-7.948752475 20.25862532 84.25172713
-7.009546544 -30.0644433 120.6568879
-8.100971235 1.954975355 117.4329655
-6.777959425 1.383995256 120.8366555
-8.716031221 -13.04911766 119.9704631
-7.699227374 1.032617382 115.1833548
-11.55850964 -1.3684324 119.389068
-7.421182399 10.06887111 97.71558928
-7.135283256 2.678687275 115.6974907
-8.575419392 8.502844689 102.2342812
-6.900715884 7.951535444 105.7278942
-7.625316162 9.905404645 130.4834815
-6.752493466 -17.56638238 120.6919343
-9.379740888 -2.149162023 119.2659169
-6.997502453 8.641509943 101.457263
-7.17308005 6.457811901 131.162978
-7.934731194 19.47423516 149.3595948
-6.665488881 2.57614247 114.4766786
-7.943953154 20.35335686 151.074743
-5.116357266 1.059041518 120.3907788
-8.33953618 -33.85569664 120.4406712
-6.680826583 3.379375604 113.2140072
-7.221740664 16.98810848 89.88187572
-6.742196616 -13.02162243 119.6206567
-10.31310886 1.310186065 120.7481513
-6.949025612 14.05988742 142.4079016
-8.023702616 4.645426128 106.3820095
-8.688300221 6.571980583 128.7541949
-8.353405062 9.673597047 102.8711375
-8.225586186 15.18985066 142.4213033
-8.069245718 -26.51562517 121.2158883
-8.557291428 -15.54521826 119.6130842
-7.781601983 12.77533687 141.6833488
-8.010808995 13.51359296 142.6837878
-7.472839864 8.138831875 100.5643303
-7.387733619 25.77800988 161.442867
-7.461456532 17.88197577 85.53032091
-8.479389823 -27.04072497 120.3456231
-7.315720856 16.96344154 90.12940001
-11.68167942 -1.258544563 119.1510727
-6.854893678 -15.91013601 119.4979372
-7.484692304 15.07564759 89.76645551
-10.65496689 1.640623927 118.6423913
-7.048247952 11.690284 139.1768757
-8.610994124 2.185536833 120.1124601
-7.538030215 19.18703828 83.23446123
-6.888839961 2.440782379 122.0649956
-7.503882756 15.56215326 92.93644998
-8.426319936 13.15611654 95.89473123
-8.146409627 22.69922958 156.6834444
-8.380575641 -1.973192067 117.8720809
-11.23533773 1.142394428 118.3711598
-6.769300344 10.5267886 135.2074173
-7.575599661 15.66319525 92.79866345
-6.951922478 15.36005617 144.2931065
-8.528951643 9.359469254 102.6303709
-7.130903108 19.92293664 152.1974502
-7.411952112 -7.354271819 120.5747177
-7.434260851 2.224558127 117.9315779
-6.856004856 1.433219615 122.5090077
-7.507246278 -3.850989332 120.4556508
-8.728685239 5.77144978 128.0322038
-10.16619011 1.869405359 118.7257088
-8.176464217 -25.14357629 121.0502775
-7.074224195 -33.1974085 119.9219835
-7.960366806 24.9466113 159.8614107
-6.645323815 -8.808812898 119.8188292
-7.925711891 4.377190777 128.1820591
-7.820666845 14.7731756 90.08413642
-6.68138202 -15.7956263 120.0353227
-8.499065475 2.440146807 115.8548848
-7.17036958 -35.68346676 119.8349334
-6.599090398 6.006808807 107.0754842
-6.766393001 -21.99082867 120.430868
-7.689470761 -16.62975477 122.3031148
-8.145058225 -40.97636415 120.0193108
-7.08117309 7.403272036 128.4547659
-7.147016587 12.40208574 95.16051914
-7.076705035 13.91733994 142.7453261
-8.236387426 5.256018441 126.0170936
-7.32543469 13.00745008 137.5017839
-8.698228095 6.579898437 107.0714202
-7.789678177 9.549467884 130.0127143
-7.593855059 17.24414019 86.0846704
-6.879337145 12.81696598 96.26119096
-8.459427944 -23.17045504 119.7969172
-7.242635742 20.34024551 153.3189287
-6.941886637 7.364749588 103.6073472
-7.30329519 22.90547633 78.27450043
-7.759195326 -2.530147777 120.5042029
-7.773235155 -48.83890466 120.9748067
-6.517415547 1.630357932 117.4244924
-7.25364323 1.496855555 114.5320608
-7.318025701 -28.54392957 121.2023338
-8.217045394 -38.67187 120.5494723
-6.84850704 -4.58874485 119.7231424
-7.449649859 21.1045532 152.3399896
-5.950959219 -1.60108891 120.5321524
-8.072196016 -10.54852744 121.1889905
-7.105446503 10.05256237 132.8357425
-7.232678219 -33.18384397 120.8742676
-7.160891675 16.54603598 144.8622836
-6.823966254 -24.39590179 120.5766994
-8.179907548 -30.28536127 119.5965794
-8.140660594 14.53079428 144.0810111
-8.059207371 18.01617056 88.1535345
-7.925416676 -15.8877066 121.9488379
-6.999242102 -33.31293562 120.1584573
-7.989666909 3.256304698 115.1942828
-8.165652301 11.90954865 95.81837657
-7.99782657 -37.32689873 119.6804638
-8.477459272 2.111668812 118.2259521
-7.781834834 3.407492306 115.0073527
-7.246618205 -16.53966704 121.5355124
-7.812596996 3.916468278 107.7003778
-7.572993004 24.43171587 76.79343762
-8.498162058 2.731538192 122.5837498
-7.426513905 -25.89309128 121.5725264
-8.631928199 -5.508822555 119.8579055
-8.723105081 4.260196534 110.7212319
-7.606678687 17.77006415 145.4106874
-8.619756201 -13.14535598 119.635852
-7.711594587 -12.80518404 118.6932277
-7.36498132 5.616237407 104.7837186
-7.055219878 4.546579425 128.0739224
-7.750160137 -31.52330229 121.651687
-7.952896803 -48.06347883 120.0439398
-8.218215752 1.531599255 123.2346192
-6.952973151 9.094134607 131.5798044
-7.711275008 -42.42103225 121.315384
-6.769544116 11.01272216 136.5658797
-6.799030568 -14.68684723 119.5679891
-8.418494679 -13.45911672 119.2026472
-7.028737575 -3.043795756 120.1982077
-7.516000516 -14.64416887 118.8015098
-8.593470083 10.90900606 136.3549065
-7.858500889 -32.54975705 121.440758
-8.131034953 19.42059556 83.96218086
-10.51547025 0.3012952841 117.5298804
-8.02516478 -20.07628111 121.5991054
-7.432596207 7.831808517 128.225492
-7.807160713 -40.89636733 121.2140813
-11.17522598 -0.4718454269 120.9212543
-7.417875039 0.3315934458 122.0364932
-6.695940915 8.378303201 131.2976182
-7.007003116 -25.69690534 120.7906552
-8.611659295 9.212274603 102.2292871
-6.833789041 11.7983442 138.3401405
-6.709775976 -2.334646698 119.3361738
-6.860225153 11.65089911 136.812242
-7.814558278 3.159860839 126.1659366
-7.746152618 12.85697676 97.94680275
-7.714551781 9.665700769 129.9667179
-8.303859618 2.957502867 122.8875275
-9.449966728 2.188966983 119.4767791
-6.737194939 9.857471089 134.7146484
-8.585800731 7.923127675 132.2381792
-8.439904072 -15.6226378 119.3228421
-7.846474619 25.8726812 161.13144
-7.444600815 2.716555553 121.7905145
-7.695546839 -18.40715215 118.8837081
-7.019124956 5.192902317 111.397903
-8.097385306 -19.36895285 119.0788487
-8.220660169 12.10936589 136.6037882
-7.590942493 18.17495345 146.2307592
-8.327377972 -2.455668958 120.172222
-8.696810568 6.815042926 106.439517
-8.136304869 -13.97030396 118.9043594
-7.605662245 12.841102 141.7976657
-7.64241518 26.92844753 162.5896212
-8.551863064 9.82179092 100.1057267
-8.0132243 18.80328854 86.80021368
-6.780645539 9.272835078 102.5376467
-7.983400257 25.4605218 160.9410414
-7.105187313 3.033395614 115.3075481
-6.923471624 2.423402527 119.7695315
-6.936530401 -17.10990731 119.361699
-8.635474824 -5.62635189 119.2439589
-8.665927059 -16.21744849 120.0162776
-7.157638751 21.25368603 154.290131
-6.702964427 3.748081811 124.8765297
-6.816006143 9.330929852 134.5884757
-8.345767888 16.16643357 144.7831723
-10.32821143 -0.8911648169 121.1435002
-8.168227971 20.87517237 82.46204588
-6.76712117 11.09442589 136.6327098
-8.169759632 12.64616312 94.67253602
-6.704089286 -18.0266993 120.2445404
-7.025542206 3.198172537 111.6500438
-8.068391616 -11.43668532 121.4272099
-7.61435746 11.34826286 133.2490124
-7.583071906 3.830399728 114.2472331
-6.95301611 -16.2447065 121.0086056
-7.222129519 1.221637296 115.0843427
-6.843507558 11.64525676 136.8774611
-8.64556981 -6.787094561 119.3181127
-8.044353019 -47.49086799 120.4887517
-7.871957081 25.49329406 160.5258839
-7.784205842 -26.13420086 121.7931179
-7.151129827 -31.84687567 120.8005786
-7.908503413 -22.23545466 121.7421281
-8.46815176 6.917246867 107.6721867
-6.710216278 -4.08005431 119.6853723
-8.397226416 10.35186418 136.7864203
-7.221483497 9.043021888 130.4368084
-8.36169349 2.408802925 121.7787084
-7.625731006 -49.63571049 121.0136735
-7.590100146 8.693310885 135.1399828
-8.65800888 -11.35055412 120.4257641
-8.694289162 4.267170486 111.8685864
-8.490460148 6.269944533 127.6268015
-7.387604659 14.94763342 140.906464
-7.866321512 16.48625357 147.5839733
-7.393051 -21.40626393 121.6860069
-6.906430966 -24.99309221 119.8772533
-7.759294492 13.92006451 143.526224
-8.335160053 4.048501925 109.2580841
-7.407039607 17.05393196 144.8262807
-6.950464229 12.1085299 137.2778401
-6.581705436 -11.7036732 120.1564123
-7.047017791 -3.236847988 118.7082544
-6.883959961 12.15480325 139.192084
-7.429171819 18.39045182 147.2679377
-8.366243444 -24.87797318 119.6644537
-7.531867561 -35.25449515 121.3919255
-8.604508106 -14.68930594 120.7817043
-7.947357268 -39.71687452 120.9576052
-8.268434705 16.07474846 91.11743576
-7.904987148 17.50082021 89.36594475
-8.180529391 17.12277524 145.9018102
-7.859894647 17.34682736 86.20470138
-7.792923863 -31.40403248 119.3673476
-8.363235635 15.71764007 91.32504398
-7.413736252 18.54943621 147.6424028
-7.13627464 -15.79437499 121.2927229
-7.133387897 -30.37516863 120.8215897
-7.066065514 17.01000691 88.14103696
-7.947653257 20.45419172 151.2821086
-7.343736246 26.54540598 163.1764765
-8.154229772 -16.9408187 121.4118208
-7.960039375 -31.64566025 121.2679143
-8.287782763 2.153714982 120.7286687
-11.23736022 1.51910738 119.5530207
-8.959020406 -2.226116957 118.8956537
-8.498817564 -24.98685321 119.991392
-8.670197342 3.738481331 111.5968596
-7.674157976 13.02139627 136.2110788
-7.944798625 22.48896884 78.62718343
-10.57090735 -1.061868584 120.9564263
-8.544901897 10.9485628 99.4055337
-7.189686779 -18.22717361 121.3221486
-7.989398083 9.074231859 129.8382462
-8.14328811 9.571494687 99.37938128
-6.586078134 6.112521376 106.5569204
-6.186889175 1.808459581 120.6630817
-6.869077782 -2.093904644 120.7410052
-7.369944597 -43.59044395 119.909453
-7.168250044 -27.32424534 120.9653524
-7.176162251 -32.55076223 119.6851927
-9.491518891 -0.6416953916 117.1861747
-7.306072209 -24.72219475 121.3350555
-8.342472045 8.994068473 131.1731914
-7.429909462 6.685077218 109.1023746
-7.601716159 4.123776698 127.81314
-7.990894171 -31.71061259 119.4537876
-8.22194511 -11.39847305 121.2503249
-8.375830088 7.276865916 128.5942393
-7.73202031 22.68316116 154.6261588
-6.783803176 0.9357510442 121.3905294
-7.089967501 16.1740462 90.92910411
-8.513440473 10.24053605 136.1083997
-6.730028172 7.867695402 130.2306926
-7.113443277 17.55835307 148.5381374
-9.797555255 1.852829541 118.3599575
-6.715070242 -9.158185991 120.1450038
-7.455926414 11.39539754 95.55865615
-7.109589732 -33.29856773 119.8457285
-7.07396318 -33.71795298 119.9510704
-7.795957202 18.31100133 87.95596096
-7.379549707 -51.28907966 120.1968697
-7.967907782 20.53124997 81.75333717
-7.227128467 21.83946591 80.80358101
-7.248278584 23.88696647 158.7658872
-10.57782063 -1.01347153 120.981948
-8.041984385 19.34493027 151.9222434
-7.591558116 23.3526295 76.61561751
-6.68449921 -4.376804612 119.5817488
-8.313569743 16.81729881 88.61973208
-7.668222423 2.659406073 112.1690689
-7.0640432 -36.32999268 120.5240132
-7.540330934 11.15537914 95.69064275
-6.108643135 1.413224203 120.3681441
-7.38543299 -27.55016615 121.4111601
-7.256221301 21.05886251 153.0201342
-7.749622348 17.17393792 90.06124074
-6.94343987 -7.236574666 120.3023052
-7.163333171 -13.21670983 121.4890127
-6.966732891 -31.4639825 120.1048444
-7.890236403 -35.17930331 121.2895312
-7.855768788 -20.29989359 121.893941
-6.784030095 7.806642644 129.9125226
-6.978788333 -30.81689377 120.0181957
-7.695924763 -51.56159405 121.0043587
-6.805173799 -21.546607 119.9362666
-6.256954303 -1.625692287 120.9885273
-8.410516395 12.90756437 96.45297006
-7.896983109 15.10160435 140.8896385
-6.883707153 -2.604473836 118.5374066
-8.401601942 14.97140559 92.34344125
-6.623057993 6.068950646 106.4614921
-8.123820871 22.27003337 156.301186
-7.403176129 14.07453484 91.62668301
-7.839634505 3.353721118 110.6437528
-6.902571412 12.68847276 96.63879751
-8.382757744 16.34012682 145.7162557
-8.111297847 9.051843616 130.3358715
-8.12271551 23.28330599 157.50346
-7.4308861 -33.81027274 121.2571795
-6.676276218 -11.23428707 120.3736124
-7.385837587 3.723317902 114.3611661
-6.583942564 -2.357520127 120.204986
-11.14920985 1.208499643 118.378259
-7.018728147 -26.87769833 120.770185
-6.954713998 14.62380768 93.20926266
-8.210437982 15.26578413 142.5097053
-8.00039938 9.939761083 98.16723885
-7.181884188 15.36076869 142.5579256
-8.505393883 3.023160165 112.4476024
-7.309946935 13.98954725 92.17747876
-8.156136836 10.65394219 133.5753912
-7.428870334 -35.79190516 121.1681115
-11.25240616 1.210081725 120.2470828
-6.848855948 2.49315533 113.4434586
-8.000789545 11.33658386 134.1726487
-7.371051229 4.03927808 123.9232911
-8.696850935 6.158227805 107.867218
-7.974115507 24.18652683 76.98652089
-7.734583665 1.108199894 115.0570316
-6.64705166 4.774712287 127.0212538
-6.987262034 7.694990212 129.142145
-10.20644036 -1.430207511 117.9134162
-7.509494194 3.173207996 115.4015961
-7.27551766 12.31345153 136.4127775
-7.99030709 -10.03777835 121.0886348
-8.431527913 6.152033186 105.5541072
-8.280148655 12.42780168 137.4143323
-6.790731009 -19.45541005 119.8570114
-8.513010083 9.943495515 133.620087
-7.545086124 21.74978178 81.67052753
-8.532412196 1.574673707 115.2303956
-11.41004392 0.763096922 120.5321312
-8.481407444 -22.73224683 120.6967105
-8.665300104 3.168156078 124.4193881
-6.940849495 12.86109761 96.50728773
-7.45036644 12.9947352 97.58715733
-7.729381024 -22.49063458 122.0198311
-7.513336001 -31.55315427 121.4989803
-7.720699053 -23.10448072 122.0118137
-8.183517557 3.811458689 127.0394494
-7.411391538 -17.22183541 121.8676311
-7.627989396 -48.68849179 121.0524758
-7.604594918 -17.28368666 122.1714399
-8.504361899 1.596049462 122.7747566
-8.067959762 -3.210561283 118.5453027
-8.513063043 2.43387481 124.1273587
-6.815490532 6.115520149 108.9233577
-8.6456707 0.9427899101 117.1531054
-6.913596302 -17.6669963 120.9106519
-7.414524246 19.08749225 83.89194019
-8.312304244 16.80708012 88.60150289
-6.950446039 -23.24476854 119.6740516
-8.044407816 12.14415152 99.02328496
-7.506863614 -45.23371414 120.9592404
-7.282397533 23.83927059 158.9206582
-7.911969973 0.8773581773 122.411147
-7.152190813 -20.20224994 119.2318478
-7.718743889 20.18872788 81.37572512
-7.243466402 -21.12640969 121.3325161
-9.307695232 0.6683620854 117.3208254
-6.940823886 2.726442272 122.3907365
-7.760194645 -31.38171157 121.6399949
-8.42445082 -2.201361723 118.8017047
-8.317375001 -34.87995638 120.4620368
-7.831547646 26.32679669 161.9270428
-8.395116558 2.964330221 115.2358983
-6.771323956 10.15592906 100.2653371
-7.451786528 11.71781002 139.915415
-7.68561428 7.364661931 101.1651219
-7.947788261 -34.13436598 121.1925012
-7.4686989 -53.26286554 120.1794091
-7.686743821 -45.17503309 119.8143298
-7.780456321 14.50025048 90.39137114
-7.37534995 -26.17622121 121.4447034
-6.975288183 13.66479109 95.14746334
-7.5171471 -25.66045003 119.1834339
-7.920735445 11.90229155 99.5720669
-8.345581036 10.88220989 100.661166
-7.240043893 9.31537985 130.8696909
-8.367250053 9.07613406 103.9407894
-7.249715874 16.10719591 91.5647422
-8.687866349 5.361977699 128.1625313
-7.12183816 -18.78317034 121.163272
-8.269845976 -36.34617112 120.5506505
-8.100328207 -19.18793431 119.0748659
-7.750944663 -46.58358601 121.0950564
-8.017874176 20.70670077 152.0606822
-8.589714918 9.766499303 101.3345765
-8.655343364 1.022903718 117.1521412
-8.536769748 2.338013725 115.9195243
-7.865812365 0.5704342484 116.1171815
-7.198543268 -36.47467276 120.7215179
-7.93289307 2.147006 117.5821981
-8.46945857 10.78538487 135.0347007
-7.711999376 16.46712488 91.37627947
-6.007248658 -1.932960141 119.4998197
-7.346467717 12.29331035 94.61198547
-7.745224401 19.5812979 148.8115962
-8.635026196 -2.445765601 119.6738191
-8.726172791 6.865970704 129.6796272
-7.960950462 -6.041766204 118.5966722
-7.13321769 19.20015281 84.59509744
-7.700818344 -2.496004399 118.4524202
-8.384899349 11.42930663 97.15093741
-7.613775742 8.527571427 128.6267175
-6.814255261 10.26636149 100.8125312
-6.860854067 -24.09937369 119.9394039
-7.331353033 3.372162777 122.8944198
-6.860462647 -17.47470911 119.5724993
-7.747901302 -14.15466568 122.2960627
-8.204564219 11.66686092 96.30290208
-8.440042564 12.41132994 97.24981049
-8.372342853 11.76458285 98.84496009
-8.056483752 25.16158434 160.8074078
-7.107011976 -4.955163184 120.3345876
-7.224638835 3.514033691 126.5738646
-7.508599016 2.465452042 116.6689507
-8.525445416 9.201625044 102.9533666
-8.754317729 5.133435548 108.615972
-8.16594783 -17.38746036 121.3637003
-10.6075312 1.562238703 120.2676125
-8.369828013 -11.65451974 120.9592421
-7.721288613 -44.06625332 119.7852801
-7.681993438 5.895506325 103.4328672
-7.577029665 18.1957572 84.65793485
-8.687015811 4.237952759 110.5339858
-7.750063834 10.78449047 132.2066425
-6.857105913 -14.79055765 120.921561
-6.630822239 3.970425402 111.7905751
-7.52756785 26.22740662 161.7307684
-6.671063914 -7.753886359 119.490262
-7.732845369 17.745904 145.2995159
-7.386493357 -39.18383503 120.9210693
-8.429020217 11.51371736 97.1346237
-6.123812329 2.171963158 120.003723
-7.03052414 9.774032828 99.59271158
-6.884143211 -6.618534172 120.1917589
-6.963175335 15.09486095 91.60029115
-8.258801429 18.86803483 85.62113622
-6.699713523 8.040557509 130.6516492
-7.335836233 23.47582632 157.2848105
-7.305436408 13.18880097 142.0989379
-7.784250087 -0.9867770058 121.6644972
-7.406086384 -25.93433957 121.5310733
-5.338808292 -0.9718149717 120.6398095
-7.723987444 24.90011317 75.97047367
-6.838706633 6.013206485 109.2847467
-8.038800201 12.49360043 98.39033193
-8.259482289 5.298051376 106.4493299
-7.474164678 -32.46181486 119.4321191
-7.196830976 8.973160708 135.2057885
-12.1695751 -0.6749966771 119.6595171
-7.042259893 17.22372386 147.6619466
-6.994561369 16.27799908 145.0718994
-7.759398783 4.975794408 105.0997583
-7.221300255 1.396306746 114.9959404
-8.663744335 5.886498106 127.7456457
-7.879703817 -44.31314659 120.928839
-6.957819425 -25.44249212 120.7301638
-6.991142492 1.40202148 122.789105
-7.048723096 14.26844336 92.48606894
-8.437090668 -15.92490303 119.3331094
-7.507945948 7.612558919 127.9435306
-7.078705884 10.00605274 99.10326064
-7.225424565 -12.76783709 121.5888496
-7.025332408 11.19081543 100.1220638
-8.120325609 1.188445933 122.770869
-8.41503626 9.744070266 135.7776499
-7.957189799 19.45764352 83.38524539
-8.603108882 2.613501264 113.5164847
-8.478820535 9.810331198 102.0342074
-7.84595332 -1.067014609 121.6191573
-12.07383974 0.3076722655 120.1081836
-6.784488 11.47532519 137.230285
-8.17029568 10.80799804 97.56147
-8.358105662 0.04882317425 116.7893016
-7.920527372 -42.27058274 119.7957744
-7.056002321 16.57647448 146.7800995
-7.652123855 22.47770066 154.1440154
-8.627439423 -19.42114918 120.2550899
-6.772454688 10.17876437 100.2386893
-6.605661272 5.022528853 109.8397002
-6.972099191 15.98721037 144.7264568
-7.282814154 24.41410915 159.7735806
-7.359250637 16.68397217 144.3441941
-7.476428192 14.73790532 144.7717186
-7.461899833 15.91297074 142.4237911
-8.630639521 -5.321315503 119.8516913
-8.611429814 7.778064142 130.0211116
-8.380928848 15.32676307 91.36553683
-7.259787667 -45.74863064 120.4860583
-10.30243353 -0.8418899779 121.1759461
-7.03224196 16.70755741 88.72974079
-7.877401636 -29.68802026 121.5166117
-8.111227102 12.2633885 95.10867342
-7.173230059 13.07091511 96.99215915
-6.709874072 6.464979013 128.4298823
-6.29260319 2.197739738 119.9681632
-7.394464414 25.95448817 73.73753257
-8.531219561 11.41201112 98.46229809
-7.092022543 3.01115701 122.5728546
-8.426523506 14.79692163 142.668637
-7.247568847 -28.83299122 121.0300863
-7.961992601 20.66465501 154.1574326
-6.138902477 -0.4585676914 117.6102646
-6.714123007 3.805359065 112.8423593
-6.62628428 4.260198499 110.9069726
-8.685000529 8.364976611 132.0654055
-8.038305272 13.3102235 93.17463942
-8.195987605 -23.39005037 119.3465138
-7.385131119 -21.83093018 121.6541444
-7.901774202 -43.53597114 120.9080498
-8.495788576 0.969639747 116.2655242
-6.986830504 12.93568991 96.60301992
-7.050147842 17.68538076 87.74802961
-7.338171014 -49.90060383 120.4614753
-7.253569721 10.69151509 133.4268897
-8.205999971 10.70758661 133.8849942
-8.118241831 -44.60920582 120.4409833
-7.904230238 26.51667826 163.5848493
-8.197501269 -31.50413154 119.6616556
-7.455258546 -16.27368111 118.8782999
-8.482653865 8.207786871 133.1424248
-8.728242897 5.935174579 128.2976036
-7.376304144 20.32616906 84.0605047
-7.412816437 26.0751259 162.8062238
-7.227324528 10.29018542 137.3541105
-8.378473769 16.26006182 145.3084386
-6.712715973 8.907760593 102.0065608
-7.02078316 5.837394703 105.8075624
-8.609736718 -14.48459079 120.7806914
-5.998496458 1.481812515 118.7767708
-7.660182447 15.46341865 140.8626663
-8.596969544 8.851948055 133.5584554
-6.75949202 1.237800802 121.7551774
-6.629013059 -9.519901651 119.9510296
-7.008191281 13.6622149 139.9892336
-6.905404787 -14.87149596 120.9853788
-7.76779564 -22.84035476 119.0618331
-8.005123563 24.64443086 160.400783
-8.35862953 15.92898644 90.38667596
-7.146033762 -38.81568535 120.5707105
-8.27737333 11.65902266 99.38538315
-7.341308684 8.174497439 100.9452411
-8.203793502 -33.96454192 119.7790554
-7.699249813 5.38859627 111.5688748
-10.37515584 0.3260677917 121.2563967
-8.502222272 11.12793464 97.93009697
-6.791525166 8.983661643 133.9302182
-7.1233136 13.35079169 141.9867045
-8.494990559 6.825065524 128.3687081
-7.864922325 16.02029961 142.5018687
-7.029384888 15.14523767 144.4822827
-8.401122969 -30.92587825 120.3951605
-8.504488287 -25.9947137 120.4470889
-7.422346119 10.14339281 97.59666659
-8.11231476 -31.02313528 119.5543519
-6.703999779 4.129719894 125.4272139
-7.097518278 -10.36479092 118.8277264
-7.232669382 -6.001855585 118.6547488
-7.466519528 -2.365670665 120.6459598
-7.551720497 10.19559663 131.2905233
-6.899133216 5.320506194 110.9406294
-7.311010465 15.43224404 89.96109747
-8.222660502 16.99811854 89.58028003
-7.358743012 14.80574097 90.70650091
-7.055585443 16.46962114 146.6185612
-6.092393561 -0.4916034647 117.6896002
-8.305760452 1.352714031 115.0797146
-6.476695442 1.863749686 120.8612338
-8.098234394 12.14751348 136.1650078
-7.977338407 2.19528803 121.0137654
-6.832631357 9.297262947 100.8515266
-8.644534403 -6.154034739 119.2907127
-7.925861245 13.76208499 96.17437066
-7.599766123 18.08193983 150.2024494
-6.819080645 2.357781345 115.5219344
-8.168735516 20.66969407 82.29114463
-6.718472195 9.53042762 133.7452416
-6.78847923 -9.469844323 119.1286785
-7.007564041 -19.63316657 119.3694406
-8.5609176 10.92122355 98.51074066
-7.428690766 -9.933522546 118.6556337
-8.6671264 7.122677247 106.1794475
-7.684554118 17.39532768 89.69857818
-8.798305634 1.456981535 117.4592748
-8.110086564 14.68390352 94.18544208
-8.113931231 -32.06072214 120.9228182
-10.5959335 -1.86985418 119.5498056
-8.477702681 -26.93827272 120.2555316
-6.784347202 10.25829843 135.7789353
-7.141029876 8.789985812 134.8207212
-8.214129877 -25.07730265 120.9989712
-8.580043339 -2.583607518 119.0321021
-7.495618155 -7.684715422 118.6226934
-7.991044141 26.00739271 162.0245625
-8.502257203 -4.573992202 119.2585483
-8.222115954 9.195696555 100.23089
-6.950363559 -2.361881326 118.7789171
-8.350728446 9.644905633 102.9302273
-7.126377697 4.825961562 107.0701314
-7.919762776 -41.66844631 119.7719343
-7.415686369 -31.58950426 121.3140595
-8.531534438 -11.92287945 120.7102164
-7.766425031 -46.5413494 121.071335
-8.527007552 12.03918994 138.5897925
-7.907368573 -12.220609 121.8167588
-8.296263687 9.565241836 99.84389367
-7.243956246 20.62421942 83.18396256
-8.094094215 13.36241698 142.3083881
-8.682035797 -15.58737658 120.0534443
-8.9942054 -0.2953548201 121.5132033
-7.392600454 -39.73297671 120.9129285
-6.745443493 -2.764177275 119.1485294
-6.8883102 -9.506027504 120.473835
-8.286096794 16.29569855 146.4243465
-8.745067712 6.524666524 105.9426024
-7.142283357 -41.1627466 120.2720745
-8.446030892 -16.45653664 119.3860341
-7.882335439 26.26223665 72.5918596
-7.936561972 2.993010925 111.6201528
-10.14274907 -0.4127986557 121.3492237
-7.647619509 19.08420945 147.7478666
-6.780835019 10.23255739 100.3909581
-8.715046904 -15.7705913 120.4014372
-8.660834479 2.814973614 114.3852496
-7.5874434 -22.61429407 119.054839
-7.767549139 -25.19308288 121.8558911
-6.972367251 5.761236331 129.7260824
-8.454005807 11.93489433 96.54000263
-8.306817989 -27.18053213 120.8002241
-5.185318962 1.271779868 118.5134624
-7.720178975 -23.78703543 121.9875256
-8.705390232 -7.57263215 119.618281
-7.015765189 -29.36228142 119.8527405
-7.369818393 8.916290739 99.67968215
-7.270134394 21.4132757 153.635869
-7.771815928 1.353950019 114.6201332
-6.909531207 3.314223033 111.6361051
-11.87915347 0.02485057652 118.2816365
-8.716536839 5.532935837 128.1883175
-8.915894226 1.446135956 121.036268
-8.332925892 4.501405683 127.9500961
-7.652740324 21.70033666 78.98900388
-7.631211277 11.2078785 95.33153789
-8.510117709 -8.275129528 119.0235726
-8.419666529 -26.72812334 120.654504
-8.731129084 4.012486405 111.7285823
-7.407320539 16.03023754 142.8759345
-6.734884745 4.691543892 126.0073787
-7.744690198 18.88967088 147.5029163
-6.748556389 -14.0384034 119.6493336
-6.816139635 0.7818338341 121.2648457
-6.92076639 -29.57845657 120.493843
-8.148219071 10.9453469 100.9997033
-7.2029741 21.89810904 80.43269736
-7.220503957 14.45562294 91.74151284
-8.105871829 9.691328446 99.02600391
-7.914047926 21.4472063 80.1410217
-8.314192389 9.523136094 132.0689844
-7.105967163 10.77341992 134.1999337
-8.069971967 -19.14484371 119.039422
-7.590282508 26.09222683 72.37507748
-7.610745539 2.402038712 118.3852922
-8.746387455 -14.25281865 120.3473927
-8.135616679 22.3787226 155.7817165
-7.516387598 0.8072879421 122.3264732
-8.352677881 13.38057465 139.4763421
-7.582704283 -5.614632763 118.547553
-8.334232489 0.8852280518 121.986346
-7.833627881 -32.31148089 121.4883146
-7.322782907 4.757951964 128.7226878
-7.647777132 12.26698177 93.6372159
-8.116227535 19.5418696 152.0646415
-7.045744115 13.75330556 95.3408634
-7.342765803 6.694104511 103.2060411
-7.128235447 17.6005759 148.655834
-7.119649215 6.379430343 104.701651
-8.205146893 7.093240236 132.1390649
-10.08328864 -0.4558445866 117.3519055
-7.866684381 12.87511039 141.8041606
-7.536772431 -7.923100224 120.6372533
-8.233843413 6.934287577 131.8378899
-7.432006109 5.291000464 105.0997626
-6.67913331 -9.501995524 120.1050889
-7.756679332 21.62455561 155.8859243
-7.571708923 -12.24591441 121.9293239
-8.361781789 -1.247218224 121.3897954
-7.262226842 22.02857319 80.60004586
-7.655448042 -38.70694751 119.5934757
-8.096887167 -2.358833804 118.1921964
-7.423509541 17.35342548 145.3198776
-7.841819717 -53.95185713 120.6192285
-8.170709118 21.5733425 154.9733356
-6.688783809 4.095609669 126.2246166
-8.522303247 -13.58663957 120.932183
-8.3251579 -19.51823385 121.0163911
-7.214839914 -36.10436988 119.780036
-6.682926148 5.794757392 127.6941702
-6.716903979 -2.378548469 119.29951
-6.711857125 6.47972031 129.8134385
-6.963763764 10.34314107 98.87048587
-6.743516432 1.909241987 121.8194195
-8.58956842 0.7923175908 116.941829
-8.237867633 16.6898026 147.2092899
-5.523354818 -1.463846366 118.589305
-7.191877855 -33.36795381 120.8105308
-8.4571031 -13.8028257 121.0134526
-8.732156516 6.105625768 128.7592211
-6.964501626 10.37140378 98.82422169
-8.415216269 12.73687621 95.18221832
-11.97601826 0.8571579744 119.7415926
-8.2423248 4.522771009 128.1271167
-6.655876243 7.61531021 104.0671369
-8.504886598 -3.51914656 118.941637
-6.906439826 -28.78370075 120.4303953
-8.460539474 2.696434396 122.9212392
-8.064546551 24.02453794 158.5748618
-7.30516455 19.15442297 151.5958927
-8.221465486 -27.42560143 120.9144471
-8.468730918 -1.948817702 117.8945637
-7.423857714 15.05410124 90.03266291
-7.454154335 4.449391574 128.3147232
-6.862915881 12.39118145 96.886785
-7.186564767 -4.916289441 120.3861307
-7.00661351 5.067824742 128.7907667
-7.321050213 9.433759163 136.1365975
-8.559331077 4.594580596 127.601015
-6.997382143 6.388666142 109.0129016
-8.183807422 -3.537513261 120.3183597
-7.109327551 1.577657588 123.2658403
-7.325059701 -40.35323196 119.831052
-7.533794727 1.408116483 114.5415832
-7.727829803 21.23793861 82.65431835
-6.697756076 3.867676978 125.1140917
-7.460022343 16.73853224 147.9598518
-8.608803229 -13.86662964 119.6394264
-6.792485341 2.347144474 115.5161153
-6.829620474 3.924846804 113.092173
-8.404089434 -30.75846614 120.5110745
-8.350446514 -33.74405663 120.1419247
-8.446761447 -21.2964208 120.7911615
-7.461498136 -25.15845112 121.6534625
-7.544103431 -53.11477208 120.119133
-6.973498027 3.846057233 109.9845932
-8.270212093 -9.529697719 120.7230707
-7.555019318 10.75311713 132.3324763
-6.83999165 -17.72348525 120.8076049
-8.342012567 -18.7357269 119.3251971
-8.284578402 16.97226735 89.32502671
-7.800356901 -13.87266957 118.7606907
-7.657056667 10.90885028 101.5355797
-7.816184289 -0.4344914507 121.8321011
-7.526864046 -27.7044175 119.2510742
-7.860007103 18.77473777 147.7024707
-7.885080032 -36.75313549 121.2353185
-8.289802585 3.880946451 109.411938
-7.615278873 12.25696604 134.9628132
-7.355813001 17.32454045 145.5756333
-8.122063445 8.426764351 101.0371324
-7.564115282 24.96419802 159.1674377
-7.018357842 -25.8038287 119.6511531
-7.135395128 13.93342837 142.9369197
-11.77627797 -0.2288145419 120.5451625
-6.619138172 -14.82875438 120.4263238
-7.345273824 9.368576786 130.4883425
-7.993453202 -43.0432797 119.894585
-6.963338805 -25.44652178 119.7643117
-7.678275551 7.527386083 133.2975002
-7.490287484 -25.34584228 121.6910222
-6.687659991 -11.97586716 119.5925276
-6.922062801 8.38094199 130.3556537
-7.285834038 3.927482755 108.6018648
-7.188290123 9.034938019 104.4790385
-7.534403245 23.20865274 77.03984601
-12.05426688 -0.8617903786 119.6320912
-7.149365807 20.41663535 152.2879216
-7.043919223 8.272477838 129.7412291
-6.901261146 -7.498718218 118.9667301
-8.098192428 23.78263324 158.6851041
-6.91258337 1.181103903 122.2383186
-8.182310464 -35.24380869 119.7991644
-7.746581192 9.760296402 97.63840556
-7.14939623 -24.23350492 121.0343009
-7.097702536 7.788730838 128.9091794
-7.927946883 25.10392163 74.52969383
-8.202754015 19.00376795 149.5698242
-7.276235229 10.04446481 98.37567328
-8.09406044 7.959670744 128.6512562
-8.646835515 -3.91276789 119.6754626
-8.283629722 8.828781817 134.7264195
-7.385551829 -21.02305893 121.6885672
-6.957114593 -26.79618738 119.8533704
-8.727472194 5.447456364 127.7420429
-5.954712677 1.846210813 118.9424138
-8.670347196 7.677402507 131.3693192
-8.025749592 15.94227687 146.5289639
-7.401086321 12.21936504 135.6676261
-8.120867423 -6.312582139 118.6613153
-6.984382241 -27.09613849 120.715268
-7.176920969 16.88749135 147.7091473
-7.579679479 -23.36839732 121.9050966
-7.550103805 10.53634403 102.1427616
-6.977200064 -20.1622053 120.9211737
-8.338748816 16.61382433 145.6080873
-7.102919219 -18.11734167 121.1575707
-7.532343975 8.468314793 99.8844932
-6.751787011 9.986287078 100.0024773
-8.5762428 2.81101285 124.5179512
-8.245511253 12.21074429 140.1591308
-7.138744682 15.60417224 90.15314404
-7.265057709 15.55779428 142.6062026
-6.704158825 9.087291124 132.9333394
-8.197640577 4.395863624 107.7923042
-7.301986851 -31.72354148 121.0281091
-7.368883922 17.58749515 146.0192952
-7.325209812 -17.6891762 118.9705169
-6.659713114 -1.517546515 117.4495236
-8.137034778 7.535250928 132.9571076
-7.513974296 20.64876049 154.2678803
-7.635028595 -21.53978746 122.0657213
-6.024165921 -1.046881407 120.9543488
-8.302172924 15.72229983 90.21011984
-7.779096113 17.80477935 85.25900208
-8.031774229 11.97002221 99.37367545
-7.904314161 -34.68706439 121.2758521
-10.98652198 1.585472795 118.8837973
-8.677885257 5.015336392 110.6982017
-8.598303108 0.984181693 116.5721003
-6.932469193 -20.65551425 120.8438892
-8.526573229 -12.73861085 120.8354379
-7.69435051 19.59289394 152.6439095
-7.682766395 -53.76431561 120.945656
-8.190146314 -23.8317933 119.3571638
-7.282473104 -15.16526872 121.6833686
-9.505888259 1.589575339 117.8741494
-12.30664407 -0.179188993 119.5258651
-8.531833911 10.04461191 135.7103441
-7.262478833 -45.58052865 120.5154519
-8.037844632 22.56120708 157.0288147
-8.065515513 -22.58551098 119.1718842
-8.493145019 13.1726333 140.4226787
-8.630017635 9.911504543 134.5239606
-8.109869477 16.07657793 146.5966126
-7.777681363 -2.370379316 120.4301265
-8.100908732 -29.99501005 121.0069718
-7.87591289 -44.53026019 120.9289544
-8.666708821 1.395292801 117.1272998
-7.033944256 10.22695346 133.4257073
-7.011928831 16.04896885 90.77951179
-7.014492469 1.194630166 115.4301069
-7.284099281 -26.78569288 121.1929578
-7.922302413 24.38807029 160.1617266
-8.443587471 -28.68031292 120.2213944
-8.182223924 8.187110225 106.0158429
-7.410124851 5.176150003 111.8281461
-8.260333684 16.79734587 88.41639292
-7.232012434 13.94122468 92.51936677
-7.834798366 14.69435193 139.890093
-7.967673386 8.741897751 129.2411463
-8.361998064 12.55676831 95.32334769
-8.648911544 -9.809685816 119.294335
-7.999045206 -3.846415876 120.4259219
-7.093632792 11.91287343 139.6417997
-8.329236328 -34.27975226 120.4642959
-8.034884277 4.618793477 106.4757108
-6.787887331 4.052318521 126.6858549
-6.723244008 -10.47226957 119.320514
-9.296454798 -1.575987202 120.7900031
-5.944540875 2.120105834 118.6618859
-7.48409182 11.56128617 139.6951136
-8.592581236 8.294254682 132.7513208
-7.879220061 15.32954899 145.7209137
-8.177647367 4.710221208 107.0167009
-7.460200551 16.23075209 143.0329127
-7.187441766 -15.86533179 119.0205783
-7.299898318 15.31995232 145.4859867
-8.472872055 10.47174712 134.4489098
-7.083319577 13.39947153 96.18447778
-5.746239624 1.401788001 119.887617
-8.726548329 -9.663984494 119.5659929
-7.098732434 4.101924876 108.7394053
-6.664880625 6.152852093 129.1459371
-6.042721665 0.8185666241 120.7216797
-8.458861661 5.187471662 111.181783
-8.021593738 26.34884273 162.9131001
-8.552730029 -7.550421483 120.1186004
-7.715512293 -4.502128468 118.5915161
-6.90777319 10.41238909 134.22538
-7.444620824 6.953640904 132.2854202
-7.540519969 25.26742035 159.8432386
-8.6608749 3.919174419 125.1896721
-8.676192162 -4.361217076 119.4362318
-7.905166647 9.283837904 129.9112671
-7.82054803 -15.39963619 122.1279209
-7.564004894 -1.745208995 117.3849387
-7.250176775 7.561736808 107.353107
-6.75762529 -4.465986129 119.6185976
-7.173711747 20.69332046 82.73265084
-8.187980981 9.284596563 100.0022935
-7.284457738 22.62093785 155.8746012
-8.653312939 8.189666766 103.8432753
-7.621930327 8.061825393 128.2191313
-6.733424383 -19.40608034 120.2224917
-8.134643456 20.01744253 84.24317202
-7.931296052 -29.49480596 121.4302858
-7.783138537 9.274665673 129.477882
-6.82437956 -17.25772496 119.6504677
-8.431311139 5.991187356 105.8066273
-7.370989452 -45.93012242 120.6690293
-7.295576573 15.18247494 90.40135432
-8.251103427 15.91631049 91.50847281
-7.33962721 0.7720524157 115.8047583
-7.88634976 -51.98750707 120.6080267
-7.410093513 8.90451262 129.3845728
-8.409055166 12.95329523 94.82741341
-7.946786523 -32.43542148 121.2670852
-7.513065527 6.546948806 102.9217935
-6.751113775 1.326286134 120.9094703
-7.425049651 24.27131417 76.90395832
-7.655252872 -19.61160505 118.9280469
-7.558973515 -35.33839444 121.4314197
-7.11855101 -39.8591907 120.2606647
-8.560272156 -15.25444546 120.8252384
-7.730020453 -0.7814142634 121.7536715
-7.242716722 8.418363402 129.2683577
-5.955255434 0.9515730611 117.694138
-8.632767246 1.623912332 115.6415431
-8.011149736 -49.91393163 120.1917576
-7.427055958 13.12692604 92.97088008
-6.702055004 -13.91565932 119.7618443
-8.430507382 14.05451654 93.33925761
-6.733153 7.140827224 130.8611151
-7.94442612 -0.3898758398 121.8230056
-6.958968706 3.053246526 112.0394946
-7.95567705 -33.27232688 121.2095867
-8.252459327 15.3824356 145.1246793
-7.097266438 19.10047528 85.39464088
-7.691636276 -36.29154068 121.5746343
-7.999464469 -51.88519936 120.2607846
-8.113860152 20.26404843 82.59980215
-7.123038273 -10.49002749 118.8126468
-7.222230427 21.44210792 153.8962527
-7.735522221 1.790979512 123.7107687
-7.558954432 16.18609824 147.1494758
-7.373868174 7.344129572 102.0774018
-7.474595451 8.297055714 100.3137218
-7.093168529 14.54786898 143.7839637
-6.815461828 1.481018165 117.3957739
-8.438578896 -28.96873358 120.2725669
-8.214256615 -13.55504938 118.9764855
-7.659109989 -28.29839293 121.8570809
-7.486329847 -6.204958069 118.5837126
-8.649458455 6.485900408 107.5103609
-8.236574701 20.12081276 152.3707163
-7.386429374 15.02065606 145.1430459
-8.64532644 -19.66774884 120.5334586
-7.898360114 -39.22865569 119.6689646
-11.67246205 0.997075552 120.0598343
-6.727217684 7.314488874 104.23618
-8.429856413 13.46491087 139.9902558
-7.288896751 -31.87701742 119.5418479
-8.248687319 17.84399975 147.5563667
-8.715552454 7.4328831 130.2696663
-6.817949644 6.974494204 131.0232901
-7.255311362 14.27220788 91.93814421
-6.714539663 -19.26467815 120.3918739
-7.282922593 16.80609238 87.88421108
-7.429707498 -36.27703746 121.1496569
-7.372005717 0.8236151903 115.6947632
-6.948373892 -30.4884157 120.1487513
-7.641499742 7.347570679 108.0296646
-8.233015899 16.27578058 89.15656028
-6.791757866 11.58406849 137.553222
-7.603478041 25.33777571 159.723695
-7.567875968 18.36480314 150.6472213
-7.153478991 18.19106494 86.05775418
-7.151692129 20.04764367 151.5453825
-7.920856881 13.08580597 142.0913635
-6.59195348 -10.01197456 119.8198231
-8.574006424 1.37349579 115.7477577
-6.832736944 4.376425459 109.3794199
-8.74109576 -10.74894195 120.1476487
-8.489111759 -19.52400765 120.7879248
-6.99690324 14.80390936 143.7946666
-7.533945744 9.507653822 98.26652105
-8.086130733 24.46574209 159.7287023
-7.012384016 12.79100376 138.3233043
-7.380667956 -14.19342058 118.8314016
-7.754034195 -20.89293096 122.0372485
-6.805956414 5.746440561 129.2601166
-7.977331037 18.74541457 86.9825703
-7.590779499 21.64554601 79.26496136
-7.020235317 2.250891777 118.144071
-8.11867297 -33.50810977 120.8694106
-6.740875859 2.857000175 113.1150902
-7.611992538 26.40090562 73.2207984
-6.688924837 -7.25986642 119.4529359
-8.111683901 -29.98206111 120.9917634
-7.041385026 5.600280701 110.6734169
-8.489517241 4.756830755 111.8755435
-7.038042583 9.330763388 135.4258993
-7.301469417 11.91856747 140.0696126
-9.642067602 2.113269447 118.8703885
-6.972516074 15.95378551 145.2963613
-7.8924566 25.26255559 75.15441807
-7.937564271 24.76546405 159.4240724
-6.92951943 -15.51737245 120.9988379
-8.164017278 4.057179394 108.4728642
-8.442357084 14.56075059 142.7854501
-7.639870811 -50.42423064 121.0085849
-8.536599673 4.285888296 125.1388326
-6.901788756 13.08378687 139.3638839
-7.844002887 2.469319407 121.3701949
-6.712835757 7.801895508 104.9947731
-8.211911369 20.03760503 151.6039821
-7.549035321 -15.35247196 122.1491813
-7.401324332 -10.43441328 118.6652137
-7.164025632 -42.19608707 120.3124363
-7.581857155 17.63424327 145.2408469
-7.924332018 6.325202964 126.8792067
-8.215856551 15.30601577 90.62689573
-8.588652354 -15.20319087 120.7877621
-6.661117931 3.047033987 113.6150587
-7.596598589 -49.69817483 120.9626479
-7.926094052 16.82352977 87.28483485
-8.186950195 13.78788869 142.7946977
-6.666814334 7.679572671 130.2499422
-6.82271875 8.468423351 133.3384952
-7.445127856 23.91591109 159.4192648
-6.947365342 6.56416263 108.4818783
-6.912716448 -25.10222182 120.6778699
-7.001183596 -33.4214847 120.337643
-8.518749834 9.123686437 103.1391718
-11.20763377 -1.300628854 118.3927878
-8.149590852 11.53213926 139.3013793
-8.58911029 5.430711426 126.8866013
-8.343608264 -26.22084781 120.778696
-7.177409799 5.461552183 105.8460907
-7.274358839 4.672761028 128.5539691
-8.137278051 -25.20213701 121.1039757
-7.734112118 -12.55982299 122.1023443
-8.053986701 -0.9447280964 121.632364
-8.574086535 6.263578415 127.8877347
-6.858688835 13.19944959 140.4017242
-7.93369286 -39.19857558 121.0128518
-7.768297189 22.3920145 78.11036043
-7.090811894 -4.981589363 120.3248815
-5.522869745 0.7471108837 117.9794837
-7.303624431 8.602036025 105.5039925
-7.49806113 11.94903883 99.5278651
-7.20192192 15.04452617 90.86526304
-8.063846574 22.34013094 156.6102385
-8.663616161 0.4252119601 121.610714
-8.522182436 10.44156469 100.591051
-7.394645784 20.7575648 154.3038184
-6.895333936 13.36183519 94.96864041
-7.300920659 -16.63269303 121.6666633
-8.274316625 10.33465217 137.1257135
-6.863175122 -19.05978951 119.6553339
-8.331771524 8.855247639 101.0511097
-7.755938912 23.04668106 158.1676938
-7.358359456 20.0891993 153.1836537
-7.759086338 23.18730642 76.84931522
-8.987049259 0.449517 121.4795281
-7.462615289 -0.1753795192 121.8960584
-8.268644845 17.53910718 88.32282911
-7.032602746 10.36730189 137.0481507
-7.346874296 -20.89813837 119.0740885
-7.545317611 23.4681973 78.53601279
-7.557940134 9.318158142 136.1322605
-10.22855116 0.7646278899 121.1545367
-7.790316661 -36.55610115 121.4004028
-7.903270574 -34.01625157 121.3069456
-8.493571002 9.148856256 132.0066615
-8.647187721 -11.98808749 119.5403989
-6.703404309 6.630820857 129.9586103
-7.577716814 -46.25805499 121.0591856
-6.892636129 0.7348955675 116.6149117
-7.84702664 6.783606402 108.9859146
-6.94329669 3.868001018 126.7898607
-7.998079803 -53.96597411 120.3600501
-7.932876307 21.14308409 152.5260355
-7.27514277 8.974432918 130.0543649
-8.716967414 1.73995638 121.1188438
-7.219774372 10.99967468 138.4716929
-6.937158725 14.84178141 143.4643456
-7.307344271 24.5853723 160.1696222
-8.320214447 12.57052606 95.19143751
-7.952979284 -12.2781453 118.7455825
-8.622974634 7.054830333 106.5579224
-8.412081809 -19.7724626 119.4901769
-8.565832767 -22.61341734 120.3037188
-8.189231358 21.53092142 154.5672034
-7.940005342 25.62248003 73.77323654
-5.95032815 0.4207696999 121.2508267
-8.712934618 1.013271732 121.6588387
-9.184169126 1.651323703 120.6974272
-8.086883286 11.64837504 99.84220645
-6.073737411 1.732796083 120.7545018
-7.912529183 3.427647483 110.3450991
-7.161700057 20.62184113 82.81331629
-8.299787844 11.58916071 96.67552162
-10.21237073 1.184957693 117.8229965
-7.263512082 9.528607786 99.22394262
-6.845701142 -18.60578567 120.787941
-8.48391102 -3.249451407 120.0223056
-7.752016226 11.15066169 95.49861512
-8.70122465 7.375881728 130.6224698
-7.178946057 7.818842258 133.3377907
-7.836912444 -23.32643482 119.1013123
-7.72783341 14.31843559 144.1745597
-7.35184224 19.19129769 86.10092055
-7.811197723 12.44704416 135.5616138
-9.539327341 -0.0613579976 117.1326051
-6.767220288 -4.9065287 119.9425646
-8.629247299 2.94454016 114.4779734
-7.4089976 27.50009939 165.0545697
-8.229320677 -1.431080579 117.2817645
-12.3069155 -0.1834295024 119.2339368
-8.126190901 13.65575653 92.9713852
-7.72114765 -14.01370286 122.3462631
-8.622622378 2.47155386 113.8578326
-7.25554918 -12.4559675 121.6308264
-7.597205849 13.16599368 97.37277517
-7.181437099 -25.95730289 119.4257474
-7.437882359 21.54002635 153.2225264
-7.795201367 20.57542045 81.00816184
-7.178204421 7.216754028 107.8180889
-7.934085777 21.91466134 156.1932383
-7.53040081 18.44467288 146.9527362
-6.72077589 3.126442443 114.0911218
-8.537029626 8.016953749 105.1677472
-8.374323579 -17.67697519 121.0052917
-7.43834458 7.395592001 107.8000146
-8.559569471 -15.06409327 119.5918797
-8.673591117 -13.03858243 119.7670392
-6.69648884 1.881147531 115.4397373
-8.502418313 -26.09731492 120.5575078
-7.955207736 9.606049477 130.7083157
-8.462926012 11.49647563 98.88206953
-7.556674192 4.091454029 106.9848355
-6.858866717 3.425092857 111.5790694
-12.18984575 0.5881817688 119.5430821
-8.693886848 6.043991904 108.0884521
-8.047758547 -9.676580368 118.674467
-8.576174101 -13.68976043 120.8550801
-6.743141805 -20.15457663 120.2673325
-8.144040267 5.609421264 110.9469961
-8.167078858 21.84639845 154.9540633
-7.914220267 23.02967515 77.68863488
-7.083115301 -37.84758684 120.2857442
-7.936609719 2.310766745 120.4242131
-7.431337609 15.30870777 89.60892453
-8.020055932 9.15547239 130.1139344
-6.904452879 3.971915938 124.4314845
-8.663515728 -2.195711125 120.2515054
-6.920903733 14.7438699 143.1137028
-7.621456346 21.25800201 151.9492345
-7.37349499 6.13723989 103.951213
-8.023069222 16.75881101 147.8349229
-7.006834455 -31.42139958 119.9844319
-5.932864214 1.540063539 119.570298
-8.529843899 -0.5734089257 116.986782
-6.749211657 -10.72622581 119.2943051
-7.179575404 19.81818979 152.290745
-6.7322873 4.203422908 112.3810908
-7.605181395 18.03888452 84.81668503
-7.5940992 13.07278673 136.5795095
-7.869229514 25.31401752 73.9915927
-7.556534285 -24.85085964 121.8114318
-7.255416005 22.29891268 156.4202046
-8.084374909 -7.379510416 120.5420861
-8.421788613 1.784717798 115.0058564
-5.947490191 0.5267635967 121.3274646
-8.240831101 -18.45605256 119.2019042
-7.402943232 22.38893512 78.80036308
-6.846899447 12.77322702 139.226554
-7.715478667 -12.32846426 122.0474686
-7.312541925 10.80732011 133.3728524
-7.653893503 2.439421328 118.501133
-7.584831314 -50.01570482 120.9311833
-7.082563324 -11.34789601 118.8951336
-7.052426327 -25.15384074 119.5336643
-7.009068741 -22.58886146 119.4934146
-8.404605625 12.20114875 139.628619
-7.240570905 -34.48742414 119.692464
-7.841908323 14.57648312 94.74343379
-7.216264074 10.97560153 138.4275832
-8.206729816 21.05236749 153.6690598
