# .PCD v0.7 - Point Cloud Data file format
VERSION 0.7
FIELDS x y z
SIZE 4 4 4
TYPE F F F
COUNT 1 1 1
WIDTH 1291
HEIGHT 1
VIEWPOINT 0 0 0 1 0 0 0
POINTS 1291
DATA ascii
-8.468427598 6.862234616 107.7728405
-1.410157704 2.782077806 55.2921765
3.071919174 1.601776987 32.14666138
0.1732755025 -3.848577116 6.584815077
-2.042783678 -1.932979828 76.22969719
13.70176765 -1.439937455 124.3582592
-8.232903457 11.94388842 98.96193648
2.033759479 -2.894907052 27.88240419
-6.999946902 5.135975139 106.9629812
-0.9345607761 2.312573634 97.71212936
-2.988009158 0.8280861076 56.53574092
-3.758126223 -0.7318913904 8.923488628
-2.283451962 1.865016758 66.66797736
3.013724776 1.250207751 46.66841952
-1.180520491 -3.235403276 2.353155133
4.995653533 3.295539089 120.2348662
-7.86359375 20.98184896 80.63139575
-7.410272149 14.54870723 144.4088787
-2.715866086 2.050176401 36.44546099
-8.006630441 17.78454024 146.468615
1.333832571 -2.287756806 86.86580856
-8.553632804 6.833662951 104.7966781
2.409421578 2.512958005 31.69175969
2.807624846 1.497671266 51.02463215
8.985522548 -3.274957399 122.7634111
-0.4539343042 -3.518256329 26.69063893
2.552581998 -0.01757474081 93.84919979
-1.484797472 3.509927471 10.00854151
2.165454608 2.178946693 59.32111235
-7.329839694 -50.73104314 120.2605484
-8.433726837 14.68846872 143.0615086
6.156118089 3.295539809 120.1528487
-7.334379956 -45.41604506 120.0096997
-3.600657999 -1.235919847 9.413218047
15.10769957 -0.5720142736 117.0536635
-1.1560762 -3.352953964 26.80040123
-7.398354164 -52.03404288 120.5005685
2.877073461 0.7048895002 66.03094923
-2.535463393 -2.454028144 28.63427368
9.325843583 -0.3834518042 115.9097229
-3.240043445 -1.792937115 16.19753009
-1.700969402 2.834459736 43.02956126
0.3741823205 2.381092899 102.92941
2.380423536 -2.732288737 21.2859297
-0.8799219495 -3.006212264 116.293696
-7.495194439 -1.402341765 117.1396415
-7.489764775 8.096313515 106.556558
-1.273852736 -3.234100803 32.12242564
-2.774039507 0.857669713 69.66033541
2.043481975 1.27327553 103.1897546
-7.600468475 16.90008573 143.7886
-8.541799882 -13.05282331 119.435516
0.8066976497 -3.77131267 6.845886819
-9.099647549 -1.945241769 118.2500207
2.276068931 -2.240086326 51.13005811
2.717671306 -0.6306880511 77.67729293
2.492321197 -2.414498242 32.54331338
7.87900551 2.05778618 122.8073325
1.206475316 -3.17764264 37.04556776
1.110524113 3.047061534 47.26983232
-5.649850648 1.520454008 120.1172524
-8.121546487 11.25121125 138.8999831
0.04171423979 2.309260011 109.8924893
-9.307779553 -0.7050173712 121.3403687
-2.836735378 1.984973453 32.96179523
2.392374377 1.758985246 65.53513903
2.340399725 2.499933613 35.29491894
-2.163587371 1.900196321 71.37398685
-2.166555502 1.772704617 76.63170945
-6.596050996 5.960295642 107.1146395
4.676130701 2.950826451 1.200016086
-7.726448415 11.84058283 99.816502
-3.439715605 -0.0649684133 34.47099551
-1.714179212 2.979009749 34.08380112
-7.938533451 26.25654247 162.2663791
-8.502902804 8.286972343 130.4161703
10.40964355 -3.295343832 121.4373002
-1.882726034 3.295103859 117.2067285
-0.02055229011 5.539649397 1.341181323
-4.316133254 -3.069559448 116.4658729
-1.155180694 -2.091028286 104.1080145
-1.968454405 2.138760579 115.5774392
3.011772273 1.825227057 28.64830923
-0.8311548584 3.735805616 8.628622788
-7.151375763 5.992951309 126.7860151
0.04912710808 -2.31624087 109.3778563
2.1519642 3.040430985 15.33934719
-7.18869654 18.81083132 86.37818602
4.19461416 -0.9370213919 2.747838259
1.033646704 -2.472599452 85.42673209
-8.57803941 -21.7594663 120.2250716
1.299642467 -2.777629606 59.03958219
2.987360818 0.8853647701 55.46487006
-0.7122298629 2.932095027 62.36591188
-8.427688565 14.10341941 93.21442518
-0.1847562872 2.274669974 111.2575467
-8.012985604 12.88369317 93.71376823
-8.397570749 14.87779053 143.6859291
0.9405941382 -2.087192658 111.1020781
2.4121989 -0.2241957864 101.8412778
1.762066635 3.154469205 22.22056841
-7.758828511 -19.17274731 118.9313209
3.634266128 1.068652545 10.50056208
-8.620005972 1.518512265 115.7128367
0.5087291347 3.260550664 43.49039632
-2.460339251 2.970404526 5.925201726
-2.297614496 2.129942892 54.69103404
-8.208856678 -35.94596194 119.897094
2.842257801 -2.667897472 3.762078198
-5.881864709 1.494145546 119.7013528
-8.215703781 9.555283196 99.64920794
-0.2819104321 -3.295335705 121.4011071
-7.546189796 10.80706746 132.4650419
-7.995487502 8.036865037 133.9400487
0.1604205249 -3.295519428 120.3658932
1.12666585 -2.674808656 70.561849
-3.221503731 0.3737433155 46.97518871
0.634471862 -2.552561242 88.17439162
-5.488581317 -0.5390532675 0.1645136973
1.782346801 2.312266651 68.68666794
0.7987947948 2.469826469 90.28095761
0.3965119641 3.133395646 52.69263816
13.90728509 -2.990685257 122.8026403
3.458002048 1.615369457 8.963483646
11.56153957 0.2029925204 122.8075714
-3.008835226 -1.774424802 30.42365023
-2.825627557 2.215137148 23.76723275
9.771425724 0.494487667 122.8075714
-2.185480898 1.999688196 66.01887198
1.973655705 -2.92483553 28.88559575
-8.558380077 2.630739751 113.3454961
-8.124841646 4.994114474 125.5167609
3.086865327 1.104121488 44.84565297
1.972238222 3.264198151 9.142116529
2.474012725 2.057686623 48.63491578
2.935995415 0.1658604054 67.34830702
0.9417472584 3.535811812 19.25600972
-3.22163751 0.8935341387 40.30691965
-3.47647163 0.7046852368 27.65918772
-3.124287397 0.4617339959 52.87107488
-7.02566329 -6.792507967 120.3535679
-8.560240023 8.107089301 132.6564824
-3.081829533 -3.294599087 118.860238
-2.913182395 -3.181607204 2.353155373
3.142425667 1.702443621 24.81156976
-6.975034511 15.43605266 91.15794316
-0.4330617054 -2.36628833 103.5278325
-0.813891687 -2.426319917 92.7721903
-8.22470551 17.50851341 88.5945636
-8.236791099 9.577283685 103.3205322
-6.68197805 -17.28284401 120.3087955
-2.44887506 -2.202266122 43.79810895
-2.400969848 2.735622345 20.53468238
-1.852261896 2.812552197 39.55064997
2.022047863 1.624203106 90.40838374
0.9007942767 -3.460433129 24.8771436
-8.290117619 15.66804214 91.78701544
-3.158984327 -2.117445884 10.68407263
0.9946735359 3.54979783 17.33267123
1.380078843 -2.255028457 87.33838047
-3.161656086 -2.283123688 3.576346286
3.776819265 0.7662533594 7.275120637
-3.132257783 -1.617905511 28.07757325
3.716012856 0.9774433997 7.068381532
0.614247952 -2.255427119 107.5906546
6.860121369 1.013644031 122.8075714
-0.823921929 -5.46052347 1.190037767
15.14270425 2.214355607 117.5866289
-0.4360654138 5.498724971 0.3216553534
3.248197922 -1.675714314 19.41341829
2.132880591 2.460433452 46.14571009
-0.5311663818 3.684248815 11.97605459
-3.36901662 -1.788160753 8.766096351
0.1243414888 -2.34813188 106.7612458
1.18950435 3.690162929 4.626318913
0.4142578575 -3.235229216 45.79531668
-0.2428262666 3.272685303 44.42618165
-3.177730189 -0.643556524 47.97277909
2.619927799 -1.465654791 63.10905137
-4.215393465 1.311046179 115.5798309
-7.664796621 -41.08622614 121.3952628
1.951613395 -3.11472575 18.58733056
2.8029691 0.6622288233 71.60393425
0.07355227501 3.229807081 48.39117689
-6.688871708 -17.81365625 120.3500476
-1.768730672 1.468949813 110.0989667
-3.485183874 -4.274212366 0.8670970279
-2.764682398 1.459367406 54.76644975
-2.853899396 -2.426384987 13.33879551
2.538103503 -1.555192291 65.11316618
3.514704084 -1.232847634 14.95375007
-0.5595983913 -3.651799896 17.10614088
-2.681534908 2.309821314 27.20066611
1.71665333 3.492010827 3.807716963
-6.808510098 3.737510886 111.0875865
-7.871979878 7.772030479 107.1455233
-7.160731696 20.05043459 83.26477234
-7.338800384 -29.25616095 119.3865309
3.71164133 -0.1721671874 15.66259821
1.623846971 -3.451978786 9.050652115
-7.468996462 5.792134084 104.217775
14.75465548 -3.290107321 118.7835876
11.47410158 3.295541843 120.8484368
-2.697919497 1.861008994 45.40261214
-7.783950724 13.71134715 137.8557272
14.43926142 3.292813966 119.6167483
-6.723061903 3.286935804 112.3709937
3.418867749 0.7973558894 29.54742004
-8.60807684 5.649981264 109.6564699
-7.230928659 9.376580472 99.60469696
-1.34358731 -3.012513037 43.79447627
-2.821322051 0.4262102649 73.27618239
-9.981446738 1.407026355 117.9038606
-7.524163843 4.138728667 106.9025167
12.17770329 3.294935625 117.6363295
-7.883000281 1.572698928 123.5534801
1.817233525 -2.518698817 2.353155039
3.276980129 1.324304906 28.39752575
15.14303303 -0.1426423826 119.2339844
3.068216204 2.453707504 2.353154544
3.26658312 2.025818894 7.327447832
-3.217181899 0.9085890542 40.29979802
-2.216964619 1.285557892 92.56603292
2.301797317 -0.889030169 99.28571986
0.6408887448 -2.283550151 105.2727264
-6.745543588 3.124401214 112.607361
-2.224286045 -0.8818417371 104.3877918
-2.759949051 -2.406548913 19.03960771
-3.525932399 0.7036814724 122.8062783
9.613745339 -3.295201136 117.4100694
-2.306159959 -3.295227392 120.9987958
-1.526642509 1.904239233 100.6421249
-1.724648756 -2.089282865 82.66712985
-6.756397819 8.55827358 133.0949294
-7.206630857 -10.50709906 118.7444838
2.066777436 -1.564281509 90.63771011
-7.403452033 -13.83235967 121.9797114
3.540963009 -0.9263055225 19.22596456
2.687144814 -1.745264374 50.32450233
1.295349448 2.863367833 54.11659931
-2.364306237 -0.1558046999 2.353154619
-4.925233145 1.059946784 2.353155089
-7.175845652 -5.587666203 120.4076196
-0.007209656841 2.289506001 111.4340353
-7.877311961 2.586322152 121.5674153
-8.652932527 8.531031997 102.8473552
-1.497769607 -2.713804516 56.55689357
1.996576658 -2.265816996 61.99561695
1.927734378 -2.233187845 66.60503917
-7.320104884 13.982682 139.3833498
3.318728524 0.2161081639 41.53552118
5.50223311 0.400443922 1.58603229
-3.256089871 -0.9868854905 36.28801752
7.716021054 -2.41013425 122.8071016
-7.639409005 11.29196913 95.17563471
-6.999484861 -9.236888623 118.859116
-5.404776181 1.6264866 119.8862261
-7.441258379 4.952047175 129.1189046
-7.912927268 26.90754475 163.3982259
6.314995607 1.24066605 122.8075714
-7.124823385 17.78899611 88.01900668
3.232006217 1.172978115 34.21589713
10.40705116 -2.412624292 122.8070882
9.542045795 -0.5369988229 115.9408879
-1.382904854 -3.654459695 3.168817032
0.00273428024 -3.605802446 23.82054289
-4.762079371 -3.1510722 117.6417853
-8.226329163 9.081894567 104.2595173
1.108155386 3.293194862 116.8425788
15.12546908 0.1612281679 117.0723521
-3.213320782 0.318181347 47.88438707
-2.296742837 2.749242243 24.25410748
2.114895259 0.6720249951 115.4667155
-7.587962435 -22.9090228 121.9359852
-6.736548528 6.258532606 129.6508846
-3.624729713 0.5502047974 18.9702916
2.198301653 0.6010496451 111.5051779
1.228146609 -1.511289593 2.35315472
13.05973519 -3.29533023 119.9556945
5.697505187 -3.295517682 118.6090688
0.2853747311 -3.38320988 36.7876924
2.882982096 0.5741129274 68.19254592
-1.043314862 2.002540959 112.8583111
4.651177611 2.997510463 1.667097396
-3.138105567 -1.720315766 24.50266593
3.67964159 1.850948043 115.5771982
-7.10892532 18.80405716 150.4054601
-8.238842664 6.393268112 104.681122
1.907526189 3.324510877 7.637517902
-1.028111635 -3.656420609 9.874875696
10.35074583 -2.992696977 116.1291377
2.684086983 1.760454489 50.02611503
-7.80483489 13.96831726 91.2876844
-7.106536295 -20.18215994 119.2815166
3.018089092 -0.6709400861 57.66169612
11.84413153 3.29554198 120.7615886
0.4361452698 3.64189717 18.57529831
-6.013055537 0.1015250559 120.9489913
3.283627227 -1.031125595 33.6657996
-4.204717172 -1.861643058 2.353155264
11.25339435 2.74350453 122.8053136
1.281394225 3.047327476 43.70221475
2.293920856 2.553870037 34.47817161
-0.3216238628 -3.010766887 61.34796273
4.424468627 1.281754686 2.318526938
-2.44705594 -0.8306650668 91.11919871
-2.568317651 -0.4143816885 90.19926952
1.094222214 2.625938443 122.8059608
-8.029712394 -29.98656635 119.4267037
-2.251436286 -1.16444823 94.35119559
10.01010436 -0.09244443769 116.0085451
-2.729378838 -0.432309091 79.35789036
-9.008723179 -1.880255861 120.53248
-6.732355994 -7.401422432 119.9865054
-6.723836971 8.489483748 103.5742505
-2.758272934 1.435999957 55.88161677
2.845791644 -1.395247663 122.8075714
9.353599664 -3.295516273 120.5295185
-3.510321547 -1.465178832 10.59877468
2.357206007 0.03043572526 106.7735676
-2.614116771 2.239203167 33.68471225
0.7586766092 2.539939674 86.571201
0.9021608807 3.800418829 3.160810652
-7.158165422 18.81170837 149.1606844
-5.789280799 -1.361633545 117.6697199
-1.37935505 2.149960502 93.56158098
-7.452724242 10.47465301 137.9269458
-6.826593844 9.347431136 134.6735859
-2.098182954 -1.636181271 122.8073416
-8.643803288 6.714998986 130.1209176
-7.411335363 25.49485913 160.8134194
-2.4637159 1.137165581 82.68667478
-3.649487786 -1.048987724 9.913049086
-7.448780832 25.28914734 160.2849894
-7.207384785 10.59340983 101.6436903
-1.879430314 2.790163891 39.8500911
-3.594796236 -0.4075634524 21.89872456
-3.682600056 0.5506972826 11.95776956
2.997243741 -0.5216300714 60.93713054
-2.075553305 -2.88547077 26.59650663
3.501118247 -1.982053236 122.8073756
-3.642480046 -0.1948425584 20.11879344
-8.558140954 -21.79230037 119.9702531
1.326926196 -1.778894381 115.6005146
-1.272722082 -2.715209209 63.57164805
-8.441532029 10.64055811 100.6382711
2.820853902 -1.390837353 115.5767822
1.839891076 2.215092343 71.26992916
2.198224074 1.661217411 79.72587553
-2.26252521 -0.1353476933 112.389478
2.994122993 -0.3989496604 61.94942528
-2.737997388 2.731702401 6.422769986
3.55300577 -0.4428893693 24.44958897
13.83490098 -3.294830835 120.3321177
8.550071941 -3.295361675 121.3801919
-2.397192725 -0.6654665305 97.51999238
-8.59003506 9.756692968 101.3522335
1.472772312 2.156590206 89.8774966
-2.41645439 0.1237509625 102.2166748
-8.58922717 9.621663574 133.3529122
-3.734575113 -0.8287503616 8.75295524
-3.169410015 0.7513711482 46.41170184
-7.451205115 22.09931739 80.9440807
12.31509695 -0.4451970176 116.3795689
-0.9092074509 -3.462198287 24.60069251
0.9449554235 -3.733120588 6.608009067
-3.002041687 1.477420856 39.72483904
2.788464863 -1.962672307 36.40454363
10.96334386 3.295541599 120.3358315
-1.364826928 2.799128592 55.71577077
-9.58410564 -1.784867777 120.5949456
-1.970847408 1.988032849 77.45468523
-8.51628376 7.321892999 103.9340353
-6.799190681 -22.92847794 120.2507422
-2.483830593 -2.400815712 33.56313132
-2.711710676 2.420818914 20.92885817
-7.270155805 -17.51874553 118.9941812
-2.35206534 0.1327646279 106.4447189
-7.019207029 14.88732343 93.03322223
0.5450694811 -2.767551563 76.07639122
3.670770826 -3.286646879 122.6485516
-6.735376013 -6.796959088 119.9704882
2.488275657 2.661488527 20.66315057
3.228991304 -0.9355998995 39.01900388
5.024499424 2.29907414 0.3364992997
-7.727661162 10.08805958 130.8106971
-0.7758558294 -2.275318062 103.1785361
2.27891076 -1.612051454 2.353154952
-5.326778441 -1.438516397 2.206073565
15.14303303 0.09675347731 118.1617608
-1.480488453 -1.771530131 109.4635687
0.9167367814 3.097755572 47.78783022
1.125139565 2.276600669 94.10686318
0.9954860641 -2.805074983 64.99627694
-6.69336004 -1.589359524 121.1281498
1.645857982 3.074324203 30.61456489
-7.011148204 6.578811088 108.6227525
-3.348872793 -1.088812031 28.36817551
-3.320407273 -0.9521798343 32.84422604
-2.197685164 -3.220180175 4.170672396
0.9823051829 2.534017981 82.60714207
-7.471015026 8.534051639 128.8511983
2.706697159 -1.847435768 45.52442234
-8.212009472 17.08094387 147.9092608
-8.393998674 -17.18209072 120.9939992
-3.658664405 1.137927433 7.618393602
-5.248418239 -1.696834769 1.637132455
-0.6843666875 3.503227223 26.18054966
5.853313987 -3.295517748 119.4951991
8.382412362 -3.294006149 117.0901331
-7.079832903 -22.01347461 121.0060426
-3.799592455 0.6637339765 6.629709385
-2.352852646 -2.232105208 47.49768576
3.013635746 -1.223621907 47.21311591
2.36649509 -0.6449459101 99.8839382
3.525445852 -0.6593792315 24.86490959
-5.460572186 -0.8234326422 0.3439671276
-6.966756489 10.24595837 101.6655102
-0.4153837319 3.075680249 56.41170785
-0.2476478303 2.445700305 99.45745349
-7.814060165 27.58333857 165.4049971
-2.726787483 -0.08364211718 81.81689452
-1.661772013 -2.592670644 58.53193846
3.444661714 -0.3597307427 32.20872543
-8.226182205 7.332350918 128.2214488
-0.4334307693 3.26004843 44.01763239
0.2517203392 -3.675630599 17.53844195
4.939500223 -2.458095428 2.233317829
-2.813622579 1.447576154 52.25063247
-3.765672264 -0.3264589935 11.06103398
-6.809439651 4.563439533 112.0286541
0.165139471 3.57151087 25.03904342
0.9839912615 -3.09919122 46.3892259
-1.654455965 2.919945482 39.45247376
-7.978780244 -36.48084513 119.6285862
-2.715894284 -2.164182031 31.60492958
2.669277856 1.86429 46.74468786
15.14116176 0.7874545528 122.1907805
-7.048528105 12.9064258 141.0735061
0.734387903 3.390200054 32.60587551
-4.388657492 -3.29004965 119.3401234
-6.020139727 -0.9674007882 117.1377157
3.533272582 0.6513026969 24.39674885
2.765587955 2.688101274 6.842752021
-2.20103176 -2.542127883 39.02765489
0.5369189161 3.601481644 20.60541186
14.47936149 -0.1223527335 122.8047051
0.2066820851 2.563369578 91.89134964
1.098054138 2.009248295 110.7361864
1.140232889 2.58294198 75.55524816
-2.425252991 -2.63401959 115.5825158
-8.641958042 3.171599019 124.7470241
-3.383936344 -1.503963792 16.82101244
-7.514969428 17.52412733 145.2668386
-6.838291964 11.85386395 137.3001186
-0.8280440919 -2.553826237 122.8063444
-7.855559242 -50.55902181 120.0539746
5.924515178 -2.946929693 116.1784562
3.132040985 -0.3883731523 52.83590047
-8.666018743 3.063938129 124.2192911
-2.663152561 -0.2513425893 84.95409656
2.037483981 -2.182128573 64.58752421
-8.680911882 -5.780202015 119.6296001
1.093692581 -2.272667014 95.32982499
-2.829055347 2.071275803 29.69598712
-7.688133405 3.980558832 106.6707436
1.196346278 -2.137276707 100.0808769
2.884493389 -0.136949976 70.96695747
3.219972106 -1.468169692 27.62449531
-6.552464514 -1.606405911 117.5613927
-8.42037125 -26.28276753 120.6676344
2.286230343 1.940205261 63.33302293
-6.702635014 2.037542137 122.4558566
-7.44345882 -43.55740158 120.8762337
-8.495556542 9.968385214 135.8051072
-2.925518332 0.3799567348 66.64185334
1.64979946 -2.922439634 39.4517486
-2.856934669 1.705704866 41.55398346
-6.864584751 4.966857316 107.8884879
-8.197217457 12.21145407 136.7002047
-0.3210762419 2.641529426 85.93709436
-2.032424568 4.136364711 2.315176836
0.462128643 -2.085458966 122.8073174
1.062687103 2.538130563 80.6450372
-3.3275387 0.7772487916 35.78515123
1.89692991 3.090134704 21.76319994
1.763940604 -3.463996044 3.967873838
-8.444215593 9.304605146 103.1926828
-8.266290134 -33.79902991 120.6424216
-1.80618294 2.395947246 63.34712849
0.6849191559 3.610925541 19.00605957
2.780055245 1.358721826 57.03363177
-5.452362798 0.9067884895 1.138387366
-2.19446574 3.292819342 122.2737897
1.669576366 5.256687305 2.250286958
0.6319015244 3.686024219 14.35348214
12.17995476 -3.059445903 122.8012324
-8.511894821 2.16921041 116.2885057
-8.072810969 7.474342087 102.2725775
-7.526349276 -42.16375227 121.1282231
2.537051559 -1.418046876 69.50059691
7.164751723 -0.7033216524 115.6097091
2.892392516 -0.09543279743 70.71327357
2.396550881 -1.855006057 61.24319159
-0.8091279172 -2.512193178 87.36682923
-2.576650389 2.095019026 41.74212954
-3.029990761 -0.1088881657 58.30702806
0.1700711853 3.143436135 2.353154472
2.179425663 0.5545008908 113.6177305
-2.047327237 2.867967196 28.70004056
1.15269801 -2.961122168 51.95235621
-7.197262753 5.29501764 106.0108939
-8.05495152 18.45534033 147.9480918
1.959972253 -3.110645818 18.56443814
0.4496096387 3.802001082 7.862716242
-1.816894614 -1.972095297 84.81255885
0.5248680315 -3.410011851 33.43260438
2.311434356 0.7307389161 101.7432497
0.0935733928 -2.565544995 92.48722303
0.8269026741 -2.866839312 64.31603274
-0.47285714 2.372186482 102.8624342
-2.634066323 2.168816712 35.64043463
-3.876437512 -3.953119335 0.9275791741
-8.352484993 5.476757116 106.4142062
0.06414635312 -3.798042944 10.62962022
-6.485371521 1.849008843 120.8926989
-1.271093936 -2.380589982 83.36693589
-9.315115915 0.02257127586 121.416971
-1.982852003 3.294321605 117.0291734
13.53301819 3.295188761 119.8781578
-7.833119156 15.49463964 146.026592
-2.029908345 2.780446781 33.96576019
-8.363932468 16.42906579 146.1496707
0.9923223016 3.404030407 26.71095141
1.325349513 -1.08505832 2.353154656
-4.622600324 -3.285660379 120.3867935
3.165299339 -0.1951593101 51.8885239
-6.855475311 9.852476617 99.92060311
2.756868058 -2.616597479 10.29821106
-1.237275528 2.176336295 96.48630658
5.952382432 -3.140063257 122.7986443
-3.068284974 -1.194244663 44.28473887
-6.772824988 10.1459928 100.3519042
-2.130146136 -2.635054609 37.23033364
-0.4194720574 3.614937679 20.4796802
7.492103584 -3.295516593 117.8596731
2.76533796 -2.333381475 21.28586515
-0.4702136156 -2.88555584 68.71034336
1.548329518 -1.786590624 105.8053009
-8.698464667 7.396414488 104.7585761
6.935114201 3.294950443 117.0998159
0.9039857402 -1.673075344 2.353154708
7.935254505 -0.4345885974 115.7106195
15.13521752 2.943638684 122.5323505
-2.293215644 -3.09859864 6.384504303
-7.499426302 8.151426343 106.4627115
-7.997203863 16.93037661 87.4401926
-0.4329892729 3.80260097 7.931146937
10.19540012 2.728326072 122.8053907
-4.60664681 -1.877403744 2.353155316
-3.122420003 -0.04181477069 55.74909653
-0.0740322674 4.440379419 2.35315459
-8.002126227 5.99119338 110.3741373
-8.590809411 10.28321594 134.6776466
1.454277651 -0.6016104382 115.5767822
-8.563956574 2.574806135 124.1758255
-7.743463179 5.822490861 103.736939
-7.040476274 -35.27979364 120.48266
-6.778387191 -22.73020129 120.4773624
-2.083863647 -3.293723228 122.0905247
2.805285815 -0.9149883103 66.54643501
3.311641518 1.567305304 19.08911873
-0.7976144722 2.358213124 97.44981365
-3.326945661 -1.888071329 8.10325356
-6.67563874 -15.21695948 119.9885874
0.08719838125 3.876213189 5.320406088
-1.432130425 2.419709315 75.98065518
2.745057961 -0.7415238379 73.77132486
-7.819449205 -44.19443821 121.0723682
2.976741545 -0.6615108293 60.49206097
4.479828682 -3.295096711 121.8491719
-2.64752736 0.9134244811 76.67728174
0.848037463 3.213874635 41.68769891
-8.256892024 -32.17097335 119.8046234
2.611257552 1.605710225 58.28366253
-2.979719798 1.363982768 45.08654544
-3.39932845 -0.5303631646 34.10810791
-7.890266971 14.39873484 139.5305991
-2.716225914 -2.800413496 3.87395182
-7.833440131 17.18638369 144.5949406
0.0493372204 -3.784011363 11.65200941
-2.714512068 2.250738632 2.353154507
-1.944541355 2.244245845 65.32036166
-2.968064269 -1.60688608 38.11323246
-8.102712957 -47.07596725 120.2328541
-8.727558676 6.609628222 129.3364953
-2.774119452 -1.715598291 46.12817053
-2.686133572 2.472896886 20.04126745
-2.463375934 -4.936677216 1.970989997
1.579420386 -3.347670765 16.58097604
1.783666901 3.347795742 10.14792397
0.05965833165 2.222515884 115.5504845
-1.942949062 2.844995486 34.3183129
1.217944495 2.501455327 77.91243713
-1.282549867 1.996834594 104.6809933
-8.332859041 12.51870606 140.3858847
-3.317839368 1.723003052 13.8129074
-3.095585569 0.07548075495 57.31506818
-8.207102726 20.06699146 83.47269859
-2.669974622 0.6239856983 80.86142531
-8.393471079 14.937609 91.84188287
1.502783 -3.104182899 33.36481393
14.11416303 -0.4408070468 116.7800345
-7.223098482 -18.87650138 121.3775768
-8.044484119 6.504284911 127.1132794
1.773805071 1.445044536 115.5767822
-1.844405879 1.965119117 84.00640826
-3.452856124 -3.294040708 119.2233907
-7.857378735 -54.4153364 120.5637831
1.933804126 1.94578536 81.21193852
10.13851996 1.05967 122.8075714
-2.314371637 2.991902516 10.96456451
-6.281870404 0.679860075 117.0167367
6.891628882 1.016200611 122.8075714
-1.375158096 -2.493234736 73.43839793
-3.035316012 -1.986382707 115.5780955
-6.64855641 7.097114665 129.6851354
-2.281155288 2.012906597 60.50974106
1.332141249 3.398256962 20.48077531
-8.627449034 1.261097255 121.0022977
-7.962644837 15.92113414 88.83202947
1.031564465 -2.28941881 96.30081494
13.13899038 1.115354018 122.8073589
-0.6904812551 -2.588272438 84.80022327
-2.415069146 1.325325472 79.62276222
-1.994727347 -2.940554588 27.17823659
-8.23713574 12.2998666 98.29538063
12.99090723 3.288107559 122.6007734
-2.657256862 1.709210815 53.22533166
-1.97202498 -3.088357366 19.49944327
-6.660579149 8.045649158 131.1620192
-1.388086521 3.295313497 117.3745266
2.229796282 0.5493445368 110.4929587
0.9138304843 2.292951217 99.37105557
3.241214024 -1.950258117 11.17361322
-4.020597277 -2.904971977 116.1391909
-7.724726753 -14.93181615 118.7722627
-3.25117866 -0.3050161584 45.4500277
-6.931628173 7.775927932 129.4143267
0.8611537176 -2.630160427 78.80379066
-7.423455516 9.912928721 131.2071714
2.053789139 2.676023345 38.35276469
3.085067956 1.419176776 37.12979194
1.183318348 2.058485777 105.1418039
-7.243077524 -33.02756658 119.6339609
1.20908157 3.087035653 42.79641907
3.066823115 1.066989266 46.84999112
1.499857653 2.73546793 55.21337986
3.604091848 -2.488003815 2.747838497
2.668562016 0.955407906 74.51522424
6.644023202 3.294087624 116.9650162
-6.895994508 -13.39373328 119.2491491
-2.144558612 2.058949356 65.62001964
0.1929626337 -2.442815422 100.0070267
-4.749154953 -2.994231139 121.4651607
12.99164125 1.94621494 122.8072359
2.12537082 3.029930914 17.01112042
-3.761770738 0.5831384937 9.649968694
2.338987406 2.04504047 56.15491276
-0.5798738891 -2.454695692 2.353154878
-2.390352929 1.925028288 58.59214935
-3.735688313 0.8575400673 8.12806537
-9.703055331 0.1914330469 121.4385761
3.223354764 0.7939199877 42.13164657
9.160223605 -1.469500548 115.8858483
-2.249949624 2.986954388 13.94616223
-8.536073371 6.604870599 105.1103673
-2.097353696 -1.31423634 98.71864738
2.238702508 2.080067027 59.85479276
-2.375768503 3.95284373 2.739997167
-8.702491079 4.801924561 110.9016377
-0.3992255576 -3.697512278 15.11420071
-2.477733776 -2.543529291 27.21097204
14.15863042 1.395255296 122.8057934
0.3627652378 3.746343058 12.1022203
-2.621508962 0.9471533854 76.96261924
-7.179654875 13.73947114 95.77390857
2.821271608 -0.3762086762 73.60740764
-3.219105787 0.5980370776 45.66399596
9.863188129 0.8134583136 115.9871802
-7.318334337 8.386289679 134.4571747
8.237881309 3.295540451 120.2419883
6.124361452 0.7165229786 122.8075714
3.182803823 -0.658544902 47.35681452
-3.001920981 -0.05128466831 63.71008971
-3.388100245 -0.9125940523 29.27908681
-3.062768172 0.861847267 51.09371453
-3.080344672 0.946503496 48.32425684
2.802820338 0.8563106795 67.84412116
-2.742193306 -1.114299495 66.71492314
-1.461982483 -5.319659364 0.8718881116
-7.850219781 27.89335445 165.0049325
-1.918366038 -3.32037502 7.540420225
2.995744591 1.045977797 51.80879056
-1.63388133 2.214923247 76.86612833
3.115333423 -1.510633233 32.45940059
2.333694173 -3.295518855 119.7507924
-8.03726447 24.74919997 159.8347779
2.949347042 0.1489116554 66.57047364
2.554011223 1.516588728 65.39237333
-2.484098885 0.5865944796 93.48802506
-2.338304637 2.368051953 42.20449353
10.19110803 0.1888727714 116.0353907
0.7449735139 3.290725608 116.7944286
-1.967957503 -1.193323158 110.1669957
0.2132038995 3.487613223 30.30996438
2.348978542 1.160488105 88.72118725
-0.3731399535 2.663547593 84.12963343
-2.694957865 -1.843447393 46.30083957
-7.750205006 26.5203139 71.65641001
1.660826973 -3.313796921 16.01223885
-7.653684756 -36.07577834 119.5023609
-3.934692998 1.694257174 2.747838002
2.407573897 -1.556077956 72.78705928
1.389680301 3.460924958 15.35105326
-0.8939136228 2.477759694 87.92568193
-6.726375639 3.366910084 124.1355304
1.295040103 3.295537715 118.0740227
-7.299741806 4.082345714 113.6692652
3.570620229 -0.3733806689 23.73259603
-8.373922867 -16.40209478 119.2698058
-2.854125682 2.185201174 23.56396336
5.191430175 1.884700944 0.6512437808
0.2287784029 2.22370842 114.3620206
-3.32819396 -0.9903872381 31.60365666
-1.499397844 -3.051005396 36.60924973
-1.611962565 -3.072515682 31.78995406
-7.634915557 -50.2966104 121.0048653
-1.441594032 -1.772131307 111.0832994
2.284430349 0.5148451836 107.6651066
-8.509433252 10.78408962 136.9417414
5.310221405 -2.89921464 116.0953007
-2.990815107 1.194948119 49.23115873
0.777492615 3.263367324 39.88906507
3.489686988 -1.488283974 122.8075714
0.7848442275 -3.222988433 39.84436747
-5.566383641 -2.366353831 119.1054534
2.50913534 2.828760401 11.13393791
2.405877334 0.0301660482 103.5346897
-1.503079582 -2.783627483 49.11322472
0.5396280522 3.836084043 5.027952633
-3.850786766 -0.6940639589 3.053548207
2.531296161 2.395669179 31.32702507
-10.79828395 -0.5118063361 121.0974414
-8.597736957 -16.91030884 119.7917783
2.297408279 -0.3977169083 108.3463954
0.2217558446 -2.995833415 62.99718116
-7.786675685 -14.40101401 118.7746468
-3.860792188 2.211944541 2.353154664
1.689234755 1.815002679 98.35624743
-7.725087294 -2.102154572 120.8579435
-0.9252773016 -2.422409589 90.85930843
2.512215563 -1.610026037 64.91129904
-7.218399904 13.29778745 138.5168142
12.23250014 3.295541834 118.651399
-9.225170929 0.03564994136 117.129289
-9.132968738 -1.854370691 120.5159849
-7.236522938 12.18377769 98.77395739
2.785856113 0.7264195716 71.4528984
-6.699032982 2.291459468 122.9771402
1.624315425 -1.662653438 108.9899259
-2.774846096 0.063616804 78.74845764
6.592901047 0.4836372964 115.5863189
-3.502791885 -0.3949231763 28.10746107
-5.095236918 -0.5572096348 120.9494641
2.673305126 -0.01111637238 85.85354849
2.52242353 0.244961599 94.36617534
2.499441445 1.244396872 77.19681877
2.446659609 -2.297250976 39.8812271
2.690151093 -0.7917818636 76.31058839
-6.852128242 -26.42689001 120.54675
-7.395660169 -4.732172344 118.6971813
1.644622513 1.846480788 95.46541047
2.148562967 -2.329841932 52.23353489
0.1014245024 1.721037758 2.353154341
-3.750649171 0.0505415764 13.86295047
1.351378035 2.76943486 57.89202008
-2.599413311 -1.99298687 122.8070037
-2.016161061 -1.748158025 85.45106834
-5.217700165 -1.871411981 121.8718122
3.017178913 0.1147737129 62.27794697
-2.157182769 1.569275311 85.7507682
8.230202697 -2.523961218 115.7552642
1.907399225 0.2624206367 2.353154537
-8.215874462 -15.67870584 121.3121499
-1.909464518 1.554627371 99.18399633
-7.530576028 2.259844826 112.9692517
-1.55445341 2.351564113 76.14364081
2.088095071 -2.760869834 32.50828096
-8.151754626 19.73234767 152.247431
-6.914639422 -28.82618502 120.215133
-2.963823418 -1.448149323 43.36976775
2.099161913 2.031655271 69.12636104
10.37460142 -3.104435822 122.7997789
-2.863533101 -1.459995109 48.91374163
-2.342135763 0.2784326727 106.1506036
3.164355945 1.865964921 18.36033644
-1.30612185 -2.401835391 81.00864873
3.301654218 -0.8090826073 36.82397848
2.725594599 0.9588138745 70.79764571
-2.684161174 0.4729876342 82.10193168
-7.653962496 4.849655514 105.1236714
3.152987028 -1.630076171 26.4706336
-6.660392287 3.857245038 112.3529192
-2.124713046 -3.138951862 11.40529156
-7.231572466 -33.96315298 120.8481162
4.036811085 3.295539182 118.6789567
-7.970656402 -28.27317618 121.3850832
-7.766864327 13.93248748 138.214118
-3.526212649 -2.522258027 122.8042382
2.268755931 3.834354311 2.353154592
1.412529986 3.448094932 15.72870545
-8.406516542 14.18301397 92.89669457
-2.947391777 -0.6522521058 62.55098125
-2.536756209 -2.739107 14.59102948
3.409753294 0.012637434 36.80918685
-3.84637874 -0.7348641772 3.079259896
10.32325815 -2.974581393 116.4340413
-2.951120995 -1.262493527 49.97457855
-0.5330414958 -2.585227661 88.05283925
-3.54631115 1.453864235 8.666549958
2.333091179 -2.759760058 22.16714699
1.423567692 3.250637952 27.22196301
13.23620528 3.294365355 117.6737338
-5.036510343 2.939835276 118.4739134
-6.710060057 0.8368220608 117.453149
-8.034013944 15.19720009 145.3284246
1.610595537 -2.527471694 63.99297025
-2.681113165 1.738224266 50.90265167
-7.983022947 4.542638986 106.4217388
5.485731216 -0.5679941817 1.734125508
2.306990268 -1.410828924 83.30287551
9.549594589 3.29554073 119.733834
4.81167957 3.295539245 120.5847934
1.403948724 -3.560394121 8.733585977
1.367229495 3.007179836 43.363983
3.893504182 -3.295518311 120.2490192
10.36768107 -1.953231641 122.8073918
2.154091819 2.08475193 64.03185187
2.510296804 2.732214734 16.07067253
-7.774938166 -19.61815356 118.9521885
-0.5944574561 -2.924489055 65.13941567
2.625943355 1.211618638 70.76640137
-2.338602413 1.928393682 61.12574269
1.370867344 1.963418323 104.1932397
-7.974013151 12.22604737 135.7488596
-2.332518695 2.808882817 19.65112662
-0.8632020108 -3.074463963 50.31820618
-7.203258432 11.90959882 135.9486763
6.888869058 -3.295516729 117.6793718
-2.187793705 0.6548281562 111.1334068
-2.070378795 3.118846952 14.59866714
2.998753007 -1.961289229 25.12518042
1.738688048 3.17590295 21.69320574
-6.60846834 2.126848265 120.4728482
2.359837733 -0.8328370256 95.52146963
-2.592075231 -2.913187085 3.31585288
1.929717249 -2.235924044 66.37936909
3.862750575 0.1096809001 6.062816722
3.720407081 -1.257491817 122.8075714
1.516742472 2.081001805 91.92051599
-2.83393719 -1.548953961 47.85438136
1.38974532 1.639625752 115.5768373
-2.423177017 0.7627466755 93.9673624
3.240168779 1.137061323 34.39085326
15.14069156 -2.759437354 118.6392929
7.512913343 2.915712215 122.8043863
3.618793153 -0.3809783086 20.47529363
2.162478883 0.7582338397 110.7459484
-0.43036138 -3.264107459 116.6806488
10.88827248 -3.248027436 117.0818106
-7.860572135 7.324698942 127.6955823
-2.20358892 1.592681405 2.353154432
2.913375333 -2.274873173 16.69353327
1.203905266 2.779135768 61.97072152
-0.6470703741 2.273476211 105.7987584
-3.325134331 1.249618732 26.7650242
2.989668176 0.6730571761 59.4404575
-1.649043688 -2.380618181 70.80887529
2.485107551 -0.8777789051 87.76805635
-0.2718695531 2.280804823 110.2777989
5.57110754 -3.295517714 118.5635776
3.325951838 -0.6970281112 37.44458839
-4.997718113 -1.640490751 119.8264283
-3.514152693 2.159156678 115.5794231
-3.104250151 -1.54865562 31.91417986
-7.809309081 14.63359016 139.686599
2.734419916 -1.624914239 51.33072036
0.71966926 3.6256228 17.79959586
1.276828291 3.301173435 27.7707383
-3.8370392 3.157667681 122.7940474
-3.762260435 -0.03726224905 11.88624993
-4.515523596 -1.003483023 2.353155056
-8.312185533 -29.51785953 119.7901686
-6.664964371 8.154849128 131.7175887
-0.3900376177 3.155928942 2.353154475
-7.452732758 -33.73049315 121.3142702
2.943767492 2.39787275 9.919075987
3.780313771 0.8732838853 4.992748745
-7.852248708 6.477886121 103.0496103
-8.07769106 9.23016846 99.60476984
0.3689897026 -3.441892921 32.33212734
-1.564867622 -3.34744519 17.05324058
1.285867985 2.434609855 79.71442086
-0.1914897835 -3.599814179 22.98140073
-7.04999196 -2.218229538 117.9764536
-6.948528632 12.82230021 96.62121639
-2.037571046 3.334688879 2.976434835
-3.443979321 0.1337177489 33.73629049
2.320825949 -2.752623683 23.05680741
0.3550491901 2.69598057 82.08882074
-2.976419713 -0.9806310111 54.31494878
-7.614777609 23.22341004 155.686719
-8.638857439 2.232697251 115.6058704
-7.268116447 -20.51451445 121.4196924
5.238081729 -3.295128227 121.787254
-8.449456001 -12.01842098 119.1263194
2.271814478 -3.125558825 5.902790746
-7.945260561 23.49710282 158.7060999
2.809824452 0.5956457034 72.45816357
-6.758813651 4.884845919 111.289985
0.6903306442 3.295537758 118.6992612
-1.344795776 2.643749359 65.51564878
-4.922458727 2.378643011 116.6158375
-0.07605614253 -3.033119353 61.47005396
1.208146145 -2.689598379 67.11944686
-3.590998055 2.148625228 115.5795745
0.8183475724 -3.241598437 40.48887384
1.397334036 1.723878358 115.4584424
-2.8961783 -1.751601186 37.79071543
-2.211060687 -0.3603435074 114.3406202
14.48817325 -2.252054389 116.8752767
0.0480637294 -3.294147171 122.0628664
-1.430569749 -2.488792136 71.95293648
3.355599051 1.763493915 115.5770516
-2.927211508 -1.700206454 2.353155067
-1.234057145 -2.624304176 70.15485062
-1.821247073 2.005053306 82.92404062
3.37979361 -1.662333004 12.07072251
-3.840262212 1.098087093 115.5789268
-3.347748397 -1.180668691 26.65618748
-2.432752507 -2.735835105 19.17453005
3.028612128 1.470774483 38.83362896
-3.621230275 0.3169877499 20.73267073
-7.185715494 8.590066924 129.7242236
2.0798217 -1.540067727 90.99080975
-1.10219297 -2.826504948 58.40315042
1.640478067 -2.830792849 115.8465467
1.33042691 -3.450754247 17.15276547
-9.402740579 0.5395447287 117.2194626
-3.543368428 -3.293782801 118.5161
2.57427645 0.2395457861 90.9492157
-7.73786559 -37.20154929 121.4629741
-7.652676619 9.298901101 129.2605907
5.473562551 0.6915388206 2.115856653
-3.647266029 0.1610349009 20.02185421
-8.593523749 -2.524589758 119.88882
-2.054137125 -1.87980411 115.5772583
3.849678036 -3.295518436 120.0569761
0.6128204891 2.881541906 67.53319426
-7.254033691 22.58927105 79.03302736
3.064718742 0.0790325867 59.34702215
-1.897510332 -3.034789376 25.01025708
-1.651212261 -1.669456349 107.4964657
3.54175784 0.6530230406 23.82050059
2.092415699 -0.9314977491 111.0810748
2.342639554 0.1236158775 107.1323846
-3.317857018 0.6095510364 39.01341726
-2.507221444 1.417658173 71.27330077
-3.705065693 0.1708272416 16.10920426
-1.92350411 -2.379607097 59.2121102
1.357023819 2.187318781 92.06159215
-5.420483199 -2.388986605 120.3273652
-2.824427558 -4.743691431 0.2717784841
-2.408885974 -3.295255572 118.9178474
-2.182221689 2.052480663 63.946716
-1.970361506 2.739887021 38.59083659
-1.710722734 -2.864862827 40.92759069
-7.611683682 27.75641885 165.6960578
1.274590239 -2.605808315 69.96785517
-7.445486166 8.874771942 99.49956464
2.163563714 2.219505317 2.353154467
-3.148540693 1.71416238 24.08114016
-2.156125471 2.215030502 57.85087397
-0.8064812279 2.202129833 107.2706469
-7.412435662 20.36350855 81.9439348
3.130016938 -1.931022994 18.33458177
-7.175659007 -41.79301502 120.475815
5.358156813 -1.335074247 1.917192519
-7.104799873 10.65587696 137.685869
-1.166441551 3.364539986 25.85763897
-2.890731798 1.169398998 56.13505633
-1.181215447 3.295486292 118.6426452
-6.729217397 4.159089979 112.4424202
-3.458771871 -1.730797537 5.309650955
10.58737216 2.988999659 116.5907669
-2.738598337 -0.2108967427 80.19600297
-1.959466898 -1.965960308 79.07858237
2.003299849 1.443285614 99.05685484
-7.48154263 19.7456405 149.6092716
3.445329284 4.306921045 0.6984806458
2.595944504 -0.5427431246 86.12202722
0.1068878641 2.601746564 89.99054668
-3.402436482 -3.710324606 2.353155571
0.03502099966 3.192258173 51.14400639
-0.7228758758 -2.486919569 90.66003636
2.092987846 -2.366286797 52.70750434
2.75788725 0.9315914202 69.25885136
-1.196129804 1.132106241 2.353154334
-7.912287474 2.172725936 120.9380321
2.612304352 0.4990057279 86.71572613
-7.774594595 9.966553309 137.1801303
1.769012425 3.308974204 12.88495601
-1.732482801 1.837106181 95.3774439
-2.780125375 4.158723132 2.353154641
-8.38312105 10.6584334 98.35507601
3.510336729 -1.532615179 8.489541964
3.938613695 2.840346251 115.9535511
5.232842908 -0.5417961614 122.8075714
-7.941769865 18.49155117 150.7220866
-8.612638861 1.508745564 121.2142268
0.5270089859 -3.776214081 9.061424059
0.5032920614 3.804390286 7.356047423
-0.4771682466 -2.841421125 115.8969382
-8.075858571 -48.36702999 120.3536565
-2.543950683 -2.680302297 17.32691773
3.72393545 0.0489193462 15.65227419
-6.995084886 17.08020735 146.8548648
-8.334487476 16.47296572 90.02918141
1.970016813 -3.168631931 14.8262104
-7.760952601 -41.70817839 121.2580228
2.47537628 0.145767504 98.14920503
-2.842419175 -0.2255367593 73.18737315
-9.771646105 2.040236499 118.7648991
-0.9157008698 3.68899638 9.971733213
-2.243594392 1.104183975 96.71504723
-2.773261049 -2.128886982 30.13611144
-1.296738518 2.526233673 73.96529706
-0.6871877765 3.294618885 121.969788
0.4576165955 -2.869473041 69.86377486
3.144367625 -0.1352767485 53.67489472
9.936131298 2.959053171 116.0198842
-2.378631496 1.471663586 77.15745085
-7.970007727 16.76377802 144.3629616
-8.29902371 16.24197721 89.38961354
0.2968600477 3.466245282 31.18408926
-1.495266707 -3.026097307 38.20921996
-7.343524985 20.74515142 81.54130484
-3.732096501 0.06107243132 15.02917233
-8.381665824 -22.32450119 119.5591461
0.5793275446 3.620753636 19.04412812
-1.398007941 2.377738383 79.53333393
-6.910488581 1.100230978 115.8611607
3.514817625 1.624472273 5.355692047
2.265988042 2.918125472 16.82514394
-7.65886837 4.51973273 113.0443577
2.430148403 0.7499249346 93.77010399
-8.272950997 -6.471991388 120.381988
9.440029891 2.249088371 115.9266511
-3.353659494 -1.151856622 26.83730739
-4.157565503 2.024125217 2.353154755
-2.880978213 1.864294462 35.13360145
0.1252689347 2.537582686 94.14219358
-2.814630036 1.437519978 52.50834604
-8.334852307 12.69193024 95.04020671
-8.199367589 -36.18000367 119.8882519
1.760984632 -3.020266429 30.17294924
8.805151519 -3.285956299 122.668572
-6.744613774 9.196934611 101.2352821
-6.834465931 2.297827064 118.4576386
1.731217273 1.781776337 98.29274726
8.218397212 1.398967872 115.7509447
2.234244465 2.749515 26.8926835
-0.5550313948 3.008483451 59.97007536
-8.120444847 22.45240935 79.69289823
-2.246088952 -0.9314797892 102.0142039
3.321302075 -0.9771043024 32.30288282
3.283973488 -1.834291072 12.30123855
0.4313323858 3.103865963 2.353154471
2.346508124 -1.037406726 92.7482918
-7.610336956 -34.0465978 121.5628718
-6.874376409 -13.81100306 120.9668327
2.090782221 -2.597935775 40.82078987
-5.946314356 -2.050438209 120.0584002
-8.419294378 -27.72274967 119.9475681
0.3561087483 -3.832580416 6.452086768
7.509845771 -3.294836092 121.9245415
-8.392541893 8.670369697 104.6302248
2.523356689 1.563442231 65.72343738
8.209487549 -1.593786551 115.7496915
3.004944005 -1.460731396 40.54668021
2.173137835 3.116682936 10.50967482
-1.122442792 -2.82467069 58.40321449
2.492036304 2.159263971 43.39143001
-0.01481004002 -3.589918706 24.79887574
-2.640386823 -2.436991118 23.9309994
1.555943231 3.132583699 30.01277286
2.175900209 1.820766819 74.10851589
-2.604706654 0.6621153528 84.2995763
1.835400112 2.45747992 58.92471411
-3.515618987 0.7078558904 25.09125765
2.100366991 -0.7236217671 115.3944397
-3.480926117 -0.8715453099 24.13328898
3.07575601 -3.295518021 117.7457543
-2.406119024 0.4323409653 100.8811864
4.037474664 -3.773650422 1.846255607
-8.086765372 -7.425113452 120.54379
2.056421112 -2.499273752 47.38176598
1.793890976 2.558501626 55.46186427
0.2891741386 3.032739152 60.0985141
-7.31999473 -13.95199435 118.8433259
1.913090991 -3.349183322 6.020317471
-1.297807891 2.944256542 49.26622518
2.703885358 0.1093486693 83.1733509
-1.72832657 1.495818028 111.0481987
-1.535881049 2.598277491 62.17212498
3.091900119 -1.492707578 34.40741615
-11.19606475 -1.597246614 119.3630687
-1.188020966 -2.384933131 85.73065179
-7.202450688 21.93798877 154.9697352
3.431658478 -1.654476472 9.281630995
-1.633392918 3.5007364 5.900405671
8.920721834 2.317716696 122.8071852
1.123523186 -3.09612406 43.87570278
9.294580191 -0.6002572581 122.8075714
7.649905881 0.2183446442 115.6709997
3.374682769 -1.013680747 28.1749023
0.2375087068 -3.295519321 120.7266297
0.5114982979 3.091774496 54.70981908
-8.285703092 9.774360627 136.2127202
-2.067613625 -2.886794805 26.86501822
3.10810721 2.139064424 12.38677023
-3.052882871 3.294640247 118.5100101
-2.025009174 3.258189351 7.843730052
-7.422305742 -13.47277005 122.0215476
0.02298846915 -2.894783495 71.02877137
0.1970156938 3.835690531 2.353154536
-7.380161926 7.272087243 107.9853932
2.623923645 -2.895261369 2.894829705
-8.719349671 1.564199899 117.3817838
-8.274451799 19.23418345 150.5358213
-2.648362177 -0.3000125018 85.61970484
-2.923263761 -0.7781546995 61.65054733
-2.990506681 0.5023504929 61.51217454
-7.220900154 -45.75508425 120.2915552
-3.037991606 -2.060919258 19.32966965
13.69898605 1.787811782 124.0176389
-0.0400552742 -2.13077465 115.577185
1.764019905 1.765459763 97.74433655
-2.590382536 -2.075661983 41.85321207
2.211608949 -2.930858797 18.47449219
-0.3912747765 -3.357468637 37.80711329
0.2036214996 -3.870307338 4.953295508
-2.200446614 -2.847352564 23.26698484
1.860694123 -1.851559739 89.1027541
-2.648567607 -1.567132185 58.21868892
-7.564254184 25.17758458 75.42865775
-1.680005668 1.892152248 94.75788102
2.320479308 -0.2263485248 107.9340653
-2.134414813 -3.227882252 6.195868218
-1.07327017 -2.007564798 111.6160322
-2.446391481 2.736637858 18.55428828
0.7833887315 -2.827423846 67.68462046
-5.775073003 -1.565675006 119.856433
-8.368727879 15.692789 90.7813024
5.454150307 0.8886330318 1.255339687
-1.917189718 4.913721471 2.353154659
1.888254209 1.289694463 111.5257916
0.4110043675 -2.852615888 71.29182848
1.142838592 2.069918493 105.7438989
-5.14236058 1.371842619 118.6792769
-9.437873908 -2.062881708 120.0132426
-1.265260887 2.088149502 100.8071212
-6.839971221 9.378342886 102.6528441
6.487255384 -1.053569913 122.8075714
2.325798892 2.92754306 13.79947359
-6.648788545 1.300416914 121.2908441
0.8009749084 -2.74218288 2.353154972
3.198014592 0.7536289536 44.53652162
-1.565024954 -3.502161924 7.954388588
-7.20578256 -20.41165685 121.2692962
2.465245648 -2.260770751 40.46834451
2.73272284 1.613207158 51.80035216
0.512297169 -2.722892935 79.26478645
2.670714615 2.890668139 2.353154544
2.569149891 -0.3393594803 90.6358965
-7.189960626 0.2620676558 116.7149334
10.16897061 -3.070144283 116.6987719
-0.7746732201 3.295537477 121.0086234
-6.870562047 10.69601118 100.2868512
3.506174373 0.3334538638 28.28538236
2.284100738 -3.022556464 10.66653056
3.054545963 -1.499003073 36.41292563
-8.763405951 5.401282076 108.4992523
-1.747240294 -2.170938121 77.48525593
-1.713238957 3.481217597 4.545760145
1.284580843 2.521879915 74.60565444
-7.049690666 1.116994005 115.5258244
-7.217394036 0.9410383562 122.3424501
2.796055878 0.1093200437 77.0366123
-10.47468607 -1.866437293 118.8646751
-2.242219671 -1.74085365 74.06987061
3.500982513 1.513898112 9.621916313
-8.348806424 -33.41422658 120.435744
-7.769955994 21.78918539 153.0708736
4.851457933 3.271317086 116.677034
3.617408951 0.5228862565 19.63687748
-3.090318849 3.289528037 116.8654776
-2.508033035 1.050099786 82.81769553
-2.193586546 -3.029250308 14.15081457
-0.3391722041 2.81474439 74.28530353
-0.9696623408 2.340594399 95.23445346
2.122263242 -3.257259471 4.85745055
-7.9851602 -3.949654092 118.5424521
10.82022682 3.292168183 122.4589168
-3.352764454 -0.7527805616 2.353154833
1.981203431 2.712039434 115.5855807
-6.91171196 -21.92180765 119.6954405
-8.546550766 -11.01333219 119.2038344
-6.94732645 2.412265867 116.1692344
2.558662096 0.04929776597 93.23644381
3.892115627 3.295539096 118.9652518
0.2707990599 3.639218185 19.83797718
-7.365188236 19.20121243 86.11036559
-7.364435827 17.97497076 85.82212839
3.687268228 0.7100315696 13.75824456
2.813449282 0.6099593212 71.94809942
0.3475143424 2.446885048 98.72367596
-2.350233322 -1.346991485 82.76461629
-8.164282396 14.82133769 144.4824187
9.585710105 -2.354227197 115.9483362
-8.705173003 -2.494748759 119.9812814
9.667507587 1.717794537 122.8075252
2.282179242 0.9043977917 100.2435641
-8.53384937 -24.51604868 120.4067159
2.471922702 -1.169998038 81.16657321
-7.994252688 6.219447082 109.9477643
2.711016807 0.3390960459 81.19188908
-9.365428129 -2.129846453 119.6041849
-8.235766704 -13.96791983 119.0162785
-0.3085362257 3.40416887 35.24073922
-6.755950779 -1.397903918 121.2838678
-6.878985018 6.377988353 108.672104
-5.578666069 -0.2514915752 121.0111537
-0.2475496582 1.414758617 115.5767822
-7.097286303 17.37723712 148.1992476
2.983013802 0.5039698769 62.0004787
2.191914158 -1.00284975 102.9599016
-0.360001673 2.99193646 62.35078294
-4.48663944 -0.8877727942 2.747838257
2.941072019 2.541291329 4.023000407
-6.102101446 2.17979708 118.5281935
-7.352489755 -26.94522095 121.3554311
-7.582098004 18.87716347 83.58573597
1.517699781 -2.473970679 70.07952325
2.83611565 0.4363970709 72.22443853
-2.880830717 -0.8626590281 62.7260706
5.550619337 -3.293593381 122.1647648
0.376893756 3.77578549 10.06572892
-1.831709394 -0.5667960499 115.5769218
3.653123658 0.5106429151 17.33920508
-8.363755334 12.59391871 97.29845659
5.238477917 -1.729605637 1.474346992
-5.449260792 -0.9382781397 1.854681121
-1.89120712 -2.878890502 34.40774106
3.01413114 -0.4621467751 60.20280541
1.782708698 -2.635565081 51.95046254
-8.640437696 4.996188364 110.8933942
-8.636128704 -13.26623353 120.7385116
14.20796557 -3.29356854 119.1576744
3.645916258 -1.370125806 3.957134424
-8.114901675 -10.05330472 121.0098536
-1.46825139 2.490398182 70.67047497
-8.696500187 3.413865667 112.9485159
0.8637955904 -1.492622185 115.5767822
12.67786392 3.295478825 118.1396025
-5.471764727 0.3292174294 120.8461678
-3.113704506 -0.6389147523 49.0057408
9.182014339 3.295400552 117.598928
-2.194129998 2.515988715 40.67281859
-5.681200691 -2.210544376 118.9574221
