# .PCD v0.7 - Point Cloud Data file format
VERSION 0.7
FIELDS x y z
SIZE 4 4 4
TYPE F F F
COUNT 1 1 1
WIDTH 1290
HEIGHT 1
VIEWPOINT 0 0 0 1 0 0 0
POINTS 1290
DATA ascii
5.449203929 -0.9388628416 1.914348779
-8.122836334 10.17869283 132.5359998
-0.03120424997 2.631459208 88.50851767
1.236008764 2.600143797 71.51960814
-0.1111402426 -2.725422557 115.5861345
3.094229144 -4.595061545 0.2755344395
1.985644446 -1.070045835 113.0114552
1.680422864 1.736933591 102.7678443
-1.959688025 3.295208701 117.403694
-0.7837534674 -3.611550949 17.47511192
-0.6951510257 -3.295210067 121.6520069
-3.204802649 -0.2705021458 48.76416364
-2.586390398 0.6215777644 86.25954674
-1.215465553 -1.366697336 122.8075491
1.82234417 -2.229547994 71.26642375
-7.208300984 16.88613649 145.3335604
2.917631811 1.705506109 37.97886797
-3.705426499 3.293614648 119.0755394
0.4380702725 2.517085558 93.45565876
2.8049169 3.295538857 120.9395018
2.503167286 0.6320141153 91.38514795
-8.723833066 6.064373622 107.6285053
-8.05396719 -28.23504946 121.1807422
1.459285291 2.066001504 95.13500708
-6.711237258 4.044965158 126.2892915
-2.947223149 0.5847189044 63.85392756
-3.202763261 -0.4078251045 47.99942567
-6.801141886 -13.03782639 119.4727914
-7.966911226 4.18423663 124.1407088
1.786334063 2.095079411 79.74994782
-7.049300206 -28.31670034 120.7678474
4.581452671 -3.295517952 120.6464605
13.94893101 1.800878964 122.8064102
12.11253659 3.295281695 121.6042823
-7.424443947 -38.56999866 121.0397187
-7.232000987 14.90381389 141.5045199
8.63142227 -3.295516456 119.8678676
-0.9170159076 -2.056579194 113.6519779
-2.23723412 4.634605388 2.353154656
-1.386120587 -1.849971316 109.4120842
-1.738378389 2.717555418 48.7476382
0.05251001807 -2.314956921 109.4411595
-7.906925197 -11.82742164 121.7094277
1.723054304 -1.470192258 112.4077982
-0.8548163972 3.594038917 17.2164236
1.94805368 3.020443649 24.26292532
-2.908024611 1.566192131 39.78311899
-3.119048038 1.807407354 22.88052118
0.1287668192 3.286359106 2.353154485
3.087962988 0.670426574 53.19835357
2.731046737 -1.264043936 62.91103754
-2.252218399 1.266790014 91.07781511
2.99238727 0.5159735991 61.29765473
-8.596368098 6.752864388 128.6000813
-7.454370172 -28.6866014 121.5128058
2.354450447 -0.7172678656 99.25050142
1.975580068 1.270648038 107.2791382
-3.292445279 0.5429844622 41.14190902
-7.055548338 15.24523798 90.93542604
1.588918006 2.09864175 87.94480454
0.7978177179 2.865837099 64.94576252
15.14303303 0.3891603421 119.0098716
2.548630988 1.754637535 57.63838315
-7.510156264 -10.45368227 118.6394166
3.69318987 1.066418494 6.803895284
-3.389346886 0.9708457109 28.06804088
11.6395922 3.295541625 118.6456872
-8.640787786 8.370495341 103.7140709
14.27600379 -3.293326114 121.1962968
-2.532875942 -3.85039576 2.747838506
-7.022849925 2.52449879 112.9558503
-8.616624278 1.761605537 116.5760627
-2.415581106 -0.0522323594 102.7437142
-2.717959688 -3.29519673 118.6644271
-6.902438174 6.941762008 107.674796
-8.305297143 -16.43018087 121.1396453
-3.929716245 3.29246176 121.2667167
-5.357710306 2.48341398 118.348068
-0.02610956919 -3.837672954 8.261161054
2.216626552 3.29552085 121.0704864
-8.118482915 11.0486391 100.8774319
15.14000336 -2.887677061 119.0142377
-0.3477942189 -2.727117419 80.06229623
-0.6348852805 -3.515051931 25.71736529
-3.528190524 0.3485175587 26.72071632
0.2990625765 3.286141857 122.6738345
9.168144162 -2.404878189 122.8071298
-1.590441618 -1.160172498 115.5768847
-7.333912207 12.3468551 140.8045415
0.8720595107 2.1554194 108.9876337
-0.1269914671 -2.324596325 108.3108872
-2.171090792 0.9316337529 106.4350786
-8.456496521 0.9686799825 116.1408113
0.550731726 -3.412951374 33.06727455
-0.5416633428 -2.7365713 78.16150057
-2.343950204 -2.52799909 33.69240161
2.162301181 -2.702652413 2.353155139
11.05802043 0.2743225897 122.8075714
-2.090295317 3.237488828 7.013410726
-8.000223077 -1.153114147 121.5469436
3.414823828 -1.19421621 22.09872329
-6.693092576 8.478462925 131.6080651
-0.7787161613 3.292396136 38.00675948
15.14005607 2.876993079 121.1640447
-0.2654325362 3.584988403 23.4839678
2.224231714 -1.010202483 100.8211261
1.394378458 -3.295519116 118.6335874
1.437061615 -2.212437675 88.05426436
0.746315336 -3.103051382 50.75807921
-4.037982614 3.229445842 116.7219092
3.194341036 -1.564044558 26.11309927
-2.113458394 1.213853486 100.9348528
0.1291911465 -2.337097974 115.5783838
-0.9488856965 2.237994165 101.9436332
3.845612602 -0.2780251619 6.099630034
0.3501792295 2.4987893 115.5795473
-2.962442084 -0.8254842292 58.22299994
-2.095051451 1.090338784 105.9164174
-5.215661977 -1.613755063 119.0168496
-7.551929675 11.8648646 140.215456
2.024751152 -1.487171819 96.08405462
3.7513126 -2.636573623 122.8058968
-1.816734387 2.061558363 80.19324662
-8.635148424 7.400562227 129.6044652
3.503440367 0.2140073042 29.2507253
0.7769447195 -2.523444245 87.27154725
3.078341998 -0.4868190613 55.76569765
-0.6621031505 -3.259639434 42.36824492
3.683240222 1.061811318 7.52406251
-7.986959608 3.31537928 110.9749657
-0.9400844364 -2.423618704 90.49432586
3.559563714 -1.224129769 12.25099771
-8.047704826 11.8784628 99.50688556
-8.606332237 -3.193371535 119.1087603
-1.902756464 -1.878462821 115.5772226
-3.475903186 -0.6941348866 27.90041413
-5.313287664 -1.482989413 2.240710513
3.389466512 2.556230989 2.353154573
13.3522487 3.292410343 122.3685761
3.179904776 -2.264649732 3.418019388
2.100255407 -2.404113504 50.44273783
3.660496318 -0.1184206572 19.42039342
-7.037904173 17.0656915 88.41685524
-6.659973589 6.801074553 106.4542854
6.825737074 3.295540058 117.994384
0.8222636311 -2.758122615 71.36650882
0.8490453387 -2.833192895 66.04014014
-7.907101455 13.87730528 138.6099945
-2.879284124 -2.51858411 8.146042713
1.27194731 2.315468846 87.18333723
-0.4972647989 5.492697364 0.9174687299
1.80375024 -1.978004725 115.5770773
-8.505895295 2.44788284 113.5160812
-1.111225265 -2.586746934 76.24479945
-6.754904127 9.750991636 133.6579806
12.97385326 1.67980529 116.5154811
-8.262540702 -17.99097679 121.1505951
-8.185278189 17.2752098 146.2065349
1.900218694 -3.902315892 2.747838576
1.182141653 -1.898308152 115.5770209
-3.267985234 1.026858563 34.75022576
-2.683932308 -2.013144263 39.66852477
-8.04664902 -35.2009143 119.6480273
2.645040295 0.6974881255 81.03032354
7.698811676 3.295306577 121.5092086
13.75230161 1.653746473 123.849312
-2.794341185 -1.312938347 57.63431497
3.838546493 -0.4207666272 5.638100275
-2.916168799 -1.354701509 49.12881491
2.001205832 0.9942726826 114.4836073
13.14797356 3.292013847 122.4549822
0.678236226 3.614318819 18.82395196
6.51653761 3.295539834 117.8429416
2.109328316 -0.833759644 112.6817023
1.618177879 2.295374733 76.52824248
-8.018028095 16.75504737 144.5640604
2.065784943 2.854516896 28.61226247
-2.319563335 -3.157882938 116.5501969
13.45865945 3.100303555 116.8797265
1.853569784 -3.107290501 22.11818341
-7.123781445 4.527810405 124.913989
-2.358831357 1.957886176 58.82776499
-7.960732092 1.522106573 123.4413622
-2.272217648 -0.4648420928 109.4177238
1.200680462 2.360556022 86.77064446
1.444303827 -2.205018933 88.26359292
-0.9860020051 -3.678018681 9.314831722
-2.961481471 -1.726142408 34.7404771
-1.683126092 1.598292849 109.0364532
9.370364754 -3.295516221 120.4338824
2.255312631 2.005454658 62.16258913
1.051060944 -3.174382262 116.5379693
-8.211898699 7.39007465 128.2520095
3.179580799 -4.525015066 0.614036275
3.762618239 0.9681438441 2.353154847
-7.549339005 1.802334851 117.8633533
4.294771633 -1.843006123 2.353155268
3.084662538 -0.1326907993 57.66714078
-7.601545777 -37.67754596 121.4140872
2.388180574 -0.8315534129 94.8714089
-7.194593749 -12.93881298 121.5318797
1.632195891 2.04468237 88.89859654
3.21888347 4.492760441 1.917052079
0.03110235664 -3.78831809 11.48629611
-7.422171724 18.87226603 86.8357014
-2.120531311 2.744981106 31.9535838
-1.851553225 -2.475236027 57.3202503
1.625579735 -2.806452026 47.05935984
0.1670011806 -3.052402346 59.5897912
-2.171240595 -3.295295964 118.8882429
-2.495859151 -0.02474710214 97.57885319
0.5537988968 3.344529928 37.6032672
3.746988743 -0.3377439936 12.22328518
10.96891629 -1.835661853 116.150901
5.810511355 0.9800902499 115.580027
-4.346876219 3.396643763 1.652575991
-8.020228564 11.32495144 134.2410386
-6.917069184 -29.10861959 120.3219339
-8.371879336 -21.37525691 119.4812012
11.31988781 -3.295515075 118.6334556
-3.011744559 0.2853617325 58.40316114
-7.112857728 -30.3385016 119.676629
3.224552171 -0.8103750858 41.73523411
9.695697267 2.924692907 116.2080791
0.03898531542 4.476226994 2.747837556
3.201922301 -0.293663412 48.80410833
1.348308761 3.477853733 15.07070457
-7.659223383 3.590481496 108.9208674
-0.4805410176 3.581140246 22.32955723
2.289463866 -0.5947946655 105.78974
-3.213414722 -1.946499983 12.92558823
-9.939188106 0.0554152312 117.2742846
-8.073717848 -40.40278134 120.7096309
2.168068824 -2.784321526 27.9010473
-8.631195339 2.21360546 118.6011195
-0.351591883 -2.908931043 67.93186691
0.8706755354 2.84584524 64.81071649
-7.893336757 12.61267205 136.1594227
2.560275264 -2.721780387 14.48884567
-3.608878263 -0.7714972905 17.88440033
-7.107036879 14.61040861 143.9312053
2.223773569 1.104221063 97.88344699
0.7934869892 3.59090033 18.60846147
-1.471810586 5.316679297 0.2931463107
-7.33860024 9.217270142 135.8066913
2.114379434 -1.927276529 72.76904412
-7.599359873 2.183467527 117.7651052
-1.650351568 -1.736866026 104.0467452
1.572577401 -2.459090738 69.22674665
1.027528098 -3.59286356 13.9371743
12.05887785 2.976152544 122.8039271
-7.744383498 8.158198678 134.2889932
2.649480933 -1.645875649 55.68140006
-8.426619585 -24.40421186 119.7848395
8.370885075 -3.294657516 121.9687728
-2.535637407 1.180433962 77.07836292
2.529929644 -1.010733422 82.31626025
-3.194549942 -1.851719704 17.0279278
-0.9567078463 2.147751193 107.0216752
0.7476424352 -2.964091047 59.62900903
-1.273451921 -2.994353041 47.07794977
-7.620606322 4.10308512 113.7643389
0.5324151106 2.281279763 107.5259502
-4.431231868 -2.621265633 115.6953848
-7.917290432 5.952664773 104.0482558
-2.001628942 -0.9880763029 114.6534217
-3.719852031 -0.9538653785 7.278622899
-2.477820789 -3.015565273 2.874315662
-1.27880684 -2.250352169 90.8082486
-7.947012057 2.73212275 112.1387939
-7.703548684 -19.59488137 118.9277718
-5.320822076 2.384616156 120.6975699
-1.993467477 1.502030724 97.07193198
10.01337568 -0.01629471277 116.0090302
-2.702170545 0.908334102 73.27767959
-6.918172089 14.93741171 143.3030736
1.954350187 3.182197374 14.52007538
2.102447002 0.9467688591 2.353154484
-3.026870616 2.371069266 6.786298337
-0.01710396584 -3.289003582 44.81933251
-2.764626027 1.694957597 47.33956893
-2.679980607 -2.73241673 8.884954648
-6.891546502 -27.871925 120.3502393
0.08157483076 3.87194953 5.638378485
3.085624477 -0.9332620144 48.24326042
-7.191554495 6.269309148 127.0084105
-8.07711795 22.79548431 78.63079935
1.925494712 3.246218843 11.65514957
-1.840802956 -2.122875456 75.99979595
-1.006241604 3.295517582 118.486688
-8.067469635 16.80293407 87.87404448
-0.7812345944 -3.973331335 2.747838537
3.340580512 1.862580559 8.102771591
-0.909804374 -4.433589783 2.747838705
-0.9482640529 -3.372877073 29.56079761
4.961562823 -3.295518053 119.4511912
2.122036989 2.298107388 55.00115597
1.552856844 -3.592052268 3.077092896
11.08203923 3.29554146 118.4598454
-7.008323915 -33.8103929 120.3795069
-1.890690211 -2.865593441 115.9932322
-0.5667441382 2.628243273 84.64524048
2.75915927 -0.4446453027 76.84269846
5.195928737 -1.869872624 0.4861398308
-2.189299155 -1.795654667 74.48084062
-2.274312758 2.642663296 30.7181824
-1.157153277 3.060194524 116.403638
3.80667944 0.1917854359 9.229946885
2.410524301 2.259685227 43.34480597
-0.004398443369 -3.235369036 48.47373539
-9.137011384 2.016594324 120.1515483
-6.737388348 2.062837509 123.040672
-7.815827754 -7.25503838 118.6095524
5.905449355 -3.295517785 120.542295
2.14178929 2.295881201 54.27792537
-2.346897347 -1.434897674 80.18902547
-3.68775151 1.720148016 115.5790809
-5.319177335 -0.951472358 122.3741068
1.088096143 -3.669283497 7.903704753
1.715560555 -0.5338450618 122.8075714
1.353671525 -3.488489928 14.28535786
-7.228720962 22.55239644 79.28569571
2.981146349 -0.5118652727 62.07296901
-4.549262706 0.802611972 2.487325562
3.380121591 -3.295517913 117.7074471
9.34239984 2.239388604 115.9125328
-7.392035665 9.021666528 135.5443511
-0.3748444925 -2.832055205 72.8979208
-0.5568688098 2.644408424 83.80207932
2.708710841 0.1896723368 82.32531313
-5.949078685 -1.695597752 120.5094295
-7.632586506 13.57239621 96.65421606
-2.848637102 0.5108894882 70.90218191
-1.988358468 2.152291187 68.216323
0.1383810683 -2.221653084 115.0903761
0.3222614131 -3.295019512 121.8827873
1.917816405 -3.038782737 24.1341864
-7.225520871 21.67634696 81.10541504
-1.139334948 4.822578884 2.353154638
1.866777294 -2.362984684 62.47949973
4.27526695 -2.887060781 122.8045516
-12.03838139 -0.4982774968 118.5683083
-7.970676734 27.65073702 165.0702683
8.602068273 3.295247386 121.6321914
-8.016401686 -23.38136098 119.1613739
-1.902390275 2.04046595 77.64853564
-1.152648599 1.687166885 2.35315437
2.112547923 1.024322655 106.9661556
1.309459191 -2.475910616 76.53262966
0.99003608 -2.179212541 104.1132104
-8.51160882 5.316494574 110.7811008
-2.719664933 -0.3286143444 80.68466468
0.14550953 -3.407415333 36.09325912
1.858326459 3.427479 3.152965149
-3.341496102 1.422150031 21.90556522
-2.091549777 -3.109778662 14.31687336
-0.3200015221 -2.236809403 112.8902067
-7.912363844 13.03499905 93.04405654
-7.776729052 -14.02126171 118.7580205
-3.434852961 -1.069729473 23.2340503
-6.728315642 -3.201123837 119.2258138
-2.965891373 1.193133044 50.86211609
-1.5218066 2.544469216 65.79096159
-5.741495826 -1.583504743 118.8269216
-2.287240582 -3.294912028 121.6181623
-1.553479609 2.851025664 46.70372795
-0.1849539898 -3.027787157 122.8023708
7.54113419 3.186323341 116.5943661
-7.283446407 -37.92293909 119.779912
0.5448245307 2.502618185 93.1139644
-0.2584832318 2.657370121 85.29285123
3.01947391 2.392622979 6.258636052
1.878713394 -2.348356597 62.72941733
10.69309815 -0.6025392717 116.1098437
-7.490911832 22.08017999 78.96214138
-3.224844696 1.665768016 21.10515062
-8.497787585 -14.54595274 119.4026163
-6.954303299 14.84185591 91.8819516
-8.185310597 19.55853787 84.87991603
-7.51600996 -10.88518777 121.435372
-2.186788592 -2.650687313 34.01774272
10.81545958 3.295116289 121.887961
2.399396012 -0.2253404217 102.6862189
-3.111419081 -1.358350048 37.49313747
0.6077454251 -3.210795679 46.15329733
2.807848239 2.669713136 5.449827491
1.157245315 -2.722319903 66.79407276
-1.381755086 -2.020336346 100.7864953
-2.663283549 0.9320009843 75.30772866
2.547944822 2.102116312 39.76914912
4.746418061 -0.7902825973 122.8075714
-0.4592173649 -2.676767494 82.68399441
-7.987970711 2.543369762 116.4743639
-3.402609559 0.9933632828 26.78159538
-8.423701494 13.16744601 140.9894789
-2.472660285 1.942896552 53.5769737
0.6576967533 -2.796077548 72.13261995
-1.268557246 2.267058388 90.14666629
4.229329595 0.3383988222 115.5771748
-6.884731855 -14.28489874 120.9744188
-1.085252056 2.456117523 84.77249184
-2.763583191 -2.31897486 22.56860718
-8.504870589 5.240211112 128.6966652
-7.452761823 20.699498 81.24911961
-7.769834323 14.26564225 138.8539134
-2.759547009 -0.9658393807 68.48717257
1.560373113 -0.01491307773 2.353154469
2.497135253 2.280058411 38.00074071
-0.4250856231 2.640187223 85.34438329
12.15144827 -0.2342827951 122.8075714
-5.447146083 0.9597547247 0.698002259
0.3834909272 -3.082713142 56.15191536
-2.985686073 0.09898507815 64.47829912
-3.715699251 -0.7771314577 10.94471551
-7.641075207 16.43398309 142.7634601
-3.149289861 -0.004140859656 54.20709989
0.7683428295 -3.295519187 117.6057797
-8.280044442 -17.5735858 119.2108352
0.03157768356 2.621165978 89.19142346
-8.336038589 11.6285308 99.29932798
-8.395638528 15.04872924 91.9551798
-2.2087976 1.819542138 72.45907477
-1.591314293 -2.844080568 45.91979106
2.362585629 2.030141807 55.56681643
-7.457299879 -50.36065613 120.0833745
-8.101543656 13.12386465 97.08306675
13.15895338 -3.295114846 121.4754082
0.2263801395 2.885533654 70.31163212
-1.399513913 -1.496852158 122.8075033
2.881100183 -2.23472757 20.06665727
-7.468995705 19.90742772 149.9709433
-1.466575005 2.215337956 86.95320315
2.976887172 1.197324554 50.07674885
-1.929927713 3.295333037 120.4703025
-2.783908292 1.833617294 41.82869074
-2.418815472 0.1555960488 101.8506379
1.312571354 3.463957233 16.65447947
-2.53273095 -2.600059655 21.95308608
-7.294468588 -14.7730117 121.729998
-8.58283466 -11.31294489 119.3078255
12.22240746 3.295542099 120.3328437
-7.417277422 3.78227976 123.4875782
-8.246029496 -3.650365915 120.2819695
12.48235532 3.281174344 122.7406182
-0.1955010083 -3.45403147 32.66161016
-8.027689088 -52.18635301 120.3220893
3.119823566 -3.292913617 122.305482
-2.748096291 1.790168854 45.31206715
3.536226568 1.342834929 11.44412675
-7.017062674 15.24969921 92.32899703
-0.6926666781 -2.007871022 115.5770981
-2.863432309 -1.185221761 57.57536126
-3.505245956 -0.8669432948 22.66562997
-0.4898712606 3.110441273 53.60876118
-7.942127422 22.24989136 154.6689234
-0.2188857623 3.711740643 15.34967689
1.787191159 -3.145371225 21.96474168
-0.9401114937 -3.759759916 5.010540993
8.28905366 -2.472109338 115.7632774
7.476553124 2.524753133 122.8064854
-7.271078864 22.08813196 79.64039546
-7.52033372 8.081984893 134.1376696
-4.647458269 -2.646361707 2.353155524
3.490049504 -0.3990108337 28.9290998
0.9896222417 2.283091577 97.9979181
-0.544752167 2.87443652 68.96271557
2.667141106 -2.828453458 4.501561433
-9.303605904 -1.111915358 117.4380328
1.158384934 1.985288327 110.2471807
2.009578096 -2.852828331 31.08495367
-3.220331531 -1.097172841 36.43546245
-2.295673223 -2.185841722 52.41846522
-8.690759844 4.048306661 111.0270421
-7.242750344 -2.378380748 120.3661245
3.046808273 -2.424260367 3.526081515
-7.408829608 14.54363967 140.0417145
3.494392981 -0.8764137511 115.576971
-7.415326039 26.65594464 72.11728732
-0.7023246752 -2.266883113 115.5778734
-2.93144671 1.805308452 34.01606561
-8.705425583 4.22212263 111.8366478
3.680955263 0.3619659449 16.46110457
1.43572869 -2.691145211 115.5846553
-7.281049663 19.30995701 149.63459
-2.397452092 -0.8635186859 2.35315474
-1.289601906 1.892932768 111.2877837
2.373723933 0.75642932 97.25628951
3.543662435 0.5445216876 2.353154842
1.332034018 3.149810203 36.05812524
-1.281055804 3.231540507 32.14680641
-7.876903797 0.8644097503 115.5725538
-1.989118588 2.764356422 36.52920054
-7.341401074 -24.94540953 121.4130319
-0.5488046267 -2.179774686 115.5772417
11.0294745 -2.945979643 116.1691275
3.14828625 0.8536184712 45.77837733
-3.33672982 -0.2326033501 40.22872517
-0.5413325249 2.486632495 94.20523724
-0.06983954369 -2.606184765 89.93697236
-7.857582129 12.17910694 140.698876
-6.669465651 6.140840551 107.9436695
-2.890772598 -0.8662275018 62.02025189
2.470759729 -1.110725028 83.10456881
-1.898713984 -1.519961968 101.2106255
-7.151425657 7.114226316 103.432198
-8.231045996 -34.96153351 119.8954198
-7.295083468 16.9510594 145.122036
-2.793845685 1.52745073 50.89842426
-5.578484839 -1.992650486 118.0603031
2.62232831 1.832239907 50.5331623
0.1782828047 2.379869889 104.2955126
-8.651438466 -16.41660232 119.9086056
-0.6044305815 2.843796644 70.11276337
-7.914957327 19.8175585 82.64495317
0.8784661338 -3.343673819 32.78608052
-8.223481504 8.404390921 129.6184421
-8.720803458 5.130113883 127.4467761
2.727184161 1.668973032 50.36838186
2.028898298 1.974620724 75.18101859
-1.161177727 2.961304445 51.77660273
-1.33256055 -3.476588836 15.45736082
-6.951390648 -30.99770076 120.4313234
2.739578939 -2.514064875 15.52974259
1.493843736 1.896338277 102.4428896
-3.333822021 -0.460568871 38.92736311
-2.874025992 -2.393005323 13.71464906
0.2854192276 -2.799554868 75.64829526
-0.1732772736 -3.780795126 11.05855813
2.227805428 0.3833043686 113.0753558
-8.318307447 -31.5569336 119.914905
-2.658756459 -0.4585928543 83.88770555
-0.348653416 2.974888943 63.56026987
1.341625405 -3.668526455 3.070727973
-8.60666813 3.956130668 124.8944123
-3.38628418 0.4687539506 35.38067915
3.714582959 1.046078701 5.83774201
-2.476284951 1.764069027 60.97964371
1.483515927 -2.178002971 88.31330496
-8.018433859 22.49146325 78.85494135
-7.077921142 14.38432216 94.296433
2.566074025 -1.389334138 68.6937004
-1.247812482 1.869579936 2.353154388
-0.9596074007 -2.474971722 86.82738389
1.553865809 -1.94660385 97.29482207
-3.512388446 2.263461667 2.353154582
1.643380611 -2.310683857 74.66612977
12.32398828 -2.847252163 116.3847569
6.691581581 -0.6186806687 115.5875932
-0.9920871595 2.08134237 109.824301
-8.061358727 -3.706152696 120.4072872
-1.062342373 -3.46450405 21.47902492
3.59112168 1.053592801 13.54263447
2.009557905 -3.326506158 4.330780121
-1.731141967 2.949019332 35.31839699
-7.66491138 14.07907713 95.75034631
-6.716039512 -6.06911118 119.2775302
0.9115499784 5.451893158 2.252366344
-2.907678339 -1.448751035 46.66358996
-8.125400142 -32.64017015 119.6301972
2.610362066 0.8743197236 79.81624246
-0.1727179882 3.889387582 3.89491082
1.567948501 -2.615139517 60.16521901
-1.56976238 -2.819775035 48.03364001
10.9730852 1.132316017 116.1513719
2.065556559 1.955948959 74.07762643
-7.403291721 -27.34060924 121.4642423
-2.130999051 1.574340434 86.8899626
2.40272371 2.03660166 53.21677336
-6.769011796 7.637449608 129.7429832
-7.370415021 9.608645099 98.61647546
-0.4621098354 2.72033238 79.76531593
-6.894352146 -27.55825742 120.138908
-7.362898192 -13.35659697 118.8077707
-7.754650352 19.25717888 148.2322355
-8.171595564 -7.259145583 118.7285417
15.14286372 -1.937134151 117.8522853
-8.363881235 9.102656055 103.8997342
-4.349528685 3.289895016 118.3904828
1.359260084 -1.824609487 111.8638577
1.605666841 -2.802191049 47.93879857
-1.341305344 1.412734522 2.353154361
2.519508139 2.871587917 8.501831889
2.903100835 0.9568098056 59.47194483
2.503301066 2.444913123 2.353154503
1.624335619 1.69001555 107.5749187
-3.418380658 1.618591028 11.18027321
1.292996202 3.166878162 36.05483436
0.762599862 -3.774408304 7.498400137
-0.766947413 -3.464468416 27.21819439
-3.101404162 0.1833126505 56.22051591
-7.958262117 11.4062167 134.1320084
3.346966006 0.8530430336 33.06932182
-2.304205796 -0.9040482598 98.83976008
-3.550243028 -2.013447669 2.35315524
-8.53667683 -22.87173649 119.968928
0.975286028 -2.002142581 115.026266
-7.800244535 10.21178741 137.5655721
7.736321147 -2.789417905 115.693219
-1.402923369 2.802761042 54.29993045
-1.038062163 3.295511442 118.3991874
1.84611756 2.083777275 77.79702947
5.477681531 0.6497182162 0.2423318181
2.006200581 1.427868111 99.56121372
-2.988221187 -1.613404611 36.71830308
4.21757724 3.003207564 2.353154658
-7.708287649 17.63067422 85.31108671
-7.634167006 0.07284823672 116.5111345
-2.250653972 -0.7699663032 104.8723831
1.957437604 1.287250984 107.8259953
-1.061541835 3.753854331 3.047630401
15.14084827 2.24715659 122.1892383
-2.506480901 0.351069827 94.73177356
-3.21167569 0.4410916151 47.18791123
-8.388028166 -7.858653218 118.8731431
3.804118024 -3.285688199 122.6801064
1.98987431 -2.553222882 47.41613471
9.283731754 2.925238743 116.3049832
0.1280310432 -2.74962922 80.00459163
1.226779272 -3.615968161 8.617446651
-7.627316774 17.35615934 85.80673612
-0.8937199566 -2.815794318 66.28640526
2.040498463 -1.443156606 97.13780398
11.71300813 3.295541871 121.0689389
-0.8873502493 -2.391324084 93.58608796
-1.948932052 -2.306210281 61.92876791
-6.775041089 10.53179768 135.106465
0.9937931203 -3.737517102 5.388745323
-5.465330156 1.572404641 120.0402774
7.882811561 3.295540362 120.5489571
-8.647237928 8.24386161 103.8724769
-5.126094172 2.800989119 120.2644658
0.2447508452 -3.254446967 45.62735612
3.138204855 0.4175558141 52.23417489
3.115460773 -0.1400552419 55.56824037
-4.270503503 -1.521796307 2.353155171
2.700402431 2.527027873 17.00579399
-8.118468448 22.77022398 157.0702695
-2.255073506 0.168018493 112.6715016
-0.4333693081 2.912787202 67.13961165
1.055989704 -2.543388425 80.54522958
-2.276741272 -1.133157675 93.84495158
10.13404933 -2.809269646 116.0331523
2.54033072 0.66874021 88.29253305
-2.059961548 -0.8569080334 115.3483926
-2.620539311 -0.8251359058 80.11957885
-0.2079230005 3.865287802 5.256710353
-3.443363269 -3.293256909 117.2031803
-8.497783207 0.9702598832 121.5781139
-1.45197752 -2.547381931 67.82073367
3.3535562 -1.496839617 18.83824272
2.170194811 2.922983333 20.63974155
4.547447049 0.8019211074 2.35315503
-0.832784619 -3.242656634 40.14071514
2.344308083 -2.989905639 9.807274738
-1.916816868 -0.3417010728 115.5769386
-2.583280542 2.328438224 31.49202071
-7.957995305 8.145926304 106.4031637
-7.321600627 6.377596386 131.2461048
0.4711839181 3.144221959 51.48211005
-7.790669285 -15.36029721 122.1796456
0.2360325046 -3.637578924 20.17487405
-6.744551363 9.799424334 100.3383114
-7.410233881 13.13634362 93.0324026
-2.500643357 4.9167583 1.398382586
2.438120185 3.049350363 2.812662704
3.665336131 -1.213423649 5.741477806
-3.095467525 2.306488974 5.98665608
-8.743141644 -13.15622925 120.1863394
-8.622204375 -18.47323853 119.9973106
-0.6419179296 -2.988538744 60.11702559
-7.188173332 9.712897814 131.8483224
-11.43342664 1.252141128 119.9919815
-2.621374881 -1.207100574 71.17804989
-1.586377355 2.963949687 39.00312598
0.4103663029 3.521124356 26.78575518
-2.260508187 -0.9908653704 99.2904678
-1.893510448 -2.603235801 48.91958912
-7.979815146 9.486791384 130.5807393
-1.324589987 2.451624845 77.48918466
-0.8943612213 2.317081497 98.20425441
0.7560257756 2.663266689 78.72681257
-2.693303651 -2.835918819 3.018113698
2.056637318 -1.067066708 2.353154763
-1.468744386 -2.478961273 71.32903258
-3.701500962 -4.09668576 1.390921927
-7.436055753 -38.54378663 121.0692353
2.510436855 -1.548518271 66.95610213
-6.932274508 13.89772998 142.0691769
-0.5083781834 -2.353014083 103.3988997
-7.185542205 4.590659254 107.2410114
-3.095168737 -2.252610817 8.268786103
-2.053765947 -2.050769541 122.8070897
10.63892911 3.295541296 118.2931213
-1.678398593 1.535519286 111.9453034
-8.261000388 -22.23143148 119.372153
-0.6690300303 2.784602015 72.64801119
-0.2596220897 3.467697607 31.33160133
-1.970210794 -3.002224482 116.2969234
0.03120374326 -0.636848772 2.353154358
-1.204449447 0.6484913006 115.5767822
5.349414011 -3.295221297 121.6123654
-7.399905563 9.043726272 99.36654889
-8.652652458 -8.346645922 119.2349657
5.898122451 2.667020548 115.5869765
1.542366452 2.319679545 78.40623205
2.782623231 0.3425658623 76.40140536
-5.211022075 0.9410657948 117.918669
14.05262884 -2.704031806 122.8042388
-8.277495166 1.714015472 114.3723427
-7.422311619 18.33891533 147.2017204
-8.261469981 14.44025733 92.10483643
-6.631604405 6.776029804 105.7490432
-3.454952736 1.457753268 14.08820597
-7.220416538 -15.30006771 118.9609517
2.960076662 1.833031585 31.45242996
-3.223247154 -1.286363802 32.57445288
7.284826124 1.268015109 122.8075714
3.447656049 -1.5508444 11.58587084
-0.6136274086 -2.372052952 100.1359038
-7.309796825 5.587095885 129.9994593
0.9899851784 2.092051313 109.2587643
4.703973484 2.981158548 116.2656141
-7.239913079 -40.15685067 119.9182836
1.728438027 -2.041927097 84.95545041
-8.357046408 12.83576945 140.7890623
9.296926663 3.295540707 119.351811
-1.52232854 3.295404532 120.6306518
0.8118080047 2.904617491 62.19118488
-7.87018801 6.810159443 102.5843717
-7.092239921 16.32406211 90.65483952
-0.9977401834 3.295117482 121.7588816
3.375769794 1.459731554 18.69798195
-1.423607602 3.105669608 35.77451751
-8.389564084 12.2595111 95.86189427
-2.573872511 -1.080295345 115.5771037
-7.277113234 -30.72264356 119.5093362
-0.2107675939 -3.295519696 120.1979444
-3.554184201 -1.112183579 14.76952891
-7.357932362 15.53319726 145.9176442
-8.596784101 10.7439279 135.9263034
-7.26009138 -9.826837592 120.9515736
2.057761265 2.817105748 115.8346888
8.244630092 -1.646936937 122.8075653
-5.3187078 0.3802641542 120.9843788
-8.446247275 8.539541875 133.7937201
-0.9359370768 -2.183467177 105.5683118
-2.980885884 -0.6130822426 61.16730461
-3.361288669 -0.1759034724 38.9653399
-0.3116846487 -3.389073366 36.22474332
1.488607019 2.426617142 73.79189097
-0.4628903519 -2.199492356 114.1112862
-5.948427981 1.217107805 117.6697207
-2.445256004 -0.5270847666 95.40134365
-1.742365636 2.315471199 70.21785475
-2.900213212 -1.010308742 58.61757395
-0.5737276057 -3.021551102 58.28371391
-2.219022382 -0.09809658982 115.5302773
2.086379372 2.07270195 68.04527204
1.129544783 -2.08900678 105.0358185
1.262402255 -2.639286547 68.3768918
-2.982430057 -0.4378001702 62.47316339
-8.521682703 12.46316494 138.7224026
-2.521981821 -0.2196655601 94.56130243
-5.459576257 1.339053866 117.0612584
0.7038102262 -3.73365358 10.72118498
-5.950553751 1.948815465 119.333202
-8.000395634 -34.91175251 119.5892896
-2.57706543 0.9309163239 80.84880299
2.136979621 -1.864270391 74.27441921
2.977050459 1.996429081 25.21876972
1.537450722 1.654684416 113.0899154
-3.45613372 3.293987992 119.6249457
-3.486945162 0.03005879733 31.55530264
-7.056086092 -36.49603861 120.2101105
3.591728198 -1.046544585 13.64062443
-2.669002156 2.43766328 22.42272611
-8.745748067 -9.219898608 119.6738368
-2.308490011 -1.113603079 92.58836416
-7.033931018 -12.29387946 119.0190039
2.342010195 -0.5553847333 103.1909366
2.564221806 2.052954431 44.17032418
-1.17972219 -2.995404708 49.23266671
-8.443657905 13.73699116 140.5745497
-7.816941708 20.97438987 83.08267876
-7.688247196 16.77275335 86.57930926
2.751415993 2.629608994 10.03034651
-7.292268195 3.845217959 108.8746543
-2.487026427 -2.465664844 30.64541987
-7.203019393 10.88515111 97.39941731
2.04967655 1.626989904 88.86120102
2.305341774 1.928783924 62.82938201
-8.475312237 5.718503406 110.1086455
1.20938419 2.028344663 106.0981962
-3.06373401 1.311790427 41.77540649
-3.379657858 1.923085291 3.925451141
-1.201560493 -4.448794203 2.728221264
-7.78791446 19.35230616 86.06049166
3.162107751 -0.8153185205 45.63712622
-3.20359241 1.451948566 29.10270679
-8.144126374 -16.45010728 121.4578098
2.171372371 0.9309124475 106.4412685
3.548538315 0.8224388563 20.75829249
-0.5033351275 3.395852402 34.51702634
0.8626260237 -3.459852998 25.65555915
-7.578322933 8.339890251 106.1733146
1.888988333 -3.264471081 11.72873822
1.371094962 -3.287968584 26.67392316
1.747247984 -3.489413575 3.003062147
3.415412288 0.850416912 28.73813658
1.759502478 -0.8773058208 115.5767822
2.792335087 -0.1551365896 2.353154697
-7.132862849 9.534833063 99.70447436
-0.6123393578 3.325316621 38.49865382
-7.153323143 13.18613959 138.5694305
1.326083086 2.7146645 61.92150559
2.684279644 -0.07744478304 84.68787507
1.640109393 -2.925631939 39.56900015
-3.045597567 -0.200505055 58.40354476
-0.02734346809 1.995090041 122.8073685
15.13267166 2.882330118 122.6287906
3.019622781 -0.8271489996 54.52975603
-6.365485876 -0.2619400579 121.6125556
-0.473787177 -3.178072911 49.21054023
-6.71754042 4.13871505 110.5006602
-8.203948416 14.20767363 143.4160435
-2.028869409 -0.9650638902 113.7718902
-1.401036093 -2.407957327 77.65399403
4.203880039 0.05190055832 115.5771693
-2.501204167 2.912476238 7.175694964
-7.685460509 21.51457256 79.21494001
-1.5828983 -3.339851186 16.93266101
-5.154780271 -2.873674656 119.2626458
0.4062354089 -3.295420218 121.2314322
0.6193896479 3.568794638 22.24101408
-0.1308289118 -2.848890925 73.37715829
15.14269849 1.127753719 121.7570651
-0.612987455 3.642691108 17.36275677
-3.013107182 1.403240005 41.87842419
2.957160425 -1.596699798 39.07790428
-0.9207774214 3.610520206 14.88016932
3.048873329 -2.861792238 115.9744565
3.069914939 -1.834741155 24.91744084
-1.867754378 3.293863204 116.9647544
1.814976812 -3.416455316 5.152970267
-8.539744712 8.731865487 133.7061311
1.735253191 -1.861790251 93.98241705
-8.147623292 5.824645112 110.5480832
-3.401124818 0.9122992373 28.45102421
-7.966564096 -27.06410297 121.4466534
-1.605309115 -2.583298767 60.86566246
-3.098668347 -2.155034477 12.19701084
-3.602956888 -0.07553126049 23.5327588
0.3295460993 -2.979601318 63.37107484
-5.200852472 -2.786181977 118.9630895
-2.175618362 -2.801380015 26.69837231
-7.981984152 -48.97127093 120.5495733
-7.622584853 -41.67546412 119.7063044
1.496868618 5.309077562 1.280367353
-0.5966480286 3.677833084 15.13006218
2.938443634 1.418548094 2.353154589
0.795392701 -3.62797066 16.19788833
-0.08190426659 -2.494205264 97.31366172
13.06435871 3.295355848 119.0044925
-2.519708238 2.052313726 46.49964232
1.182377515 3.016207484 47.84973051
-1.614370242 -2.44044754 69.00870123
-7.511223301 -22.17241768 119.064464
1.592396297 2.37752643 73.37378977
0.01845395032 -3.208598438 50.16407924
-6.802501023 3.92967549 126.5133637
-7.409779681 -23.20449721 121.6456279
1.552210975 1.156852125 115.5767822
-7.759923384 21.40239118 82.33503478
-3.818620928 -3.280487696 2.353155573
-2.978863408 0.5711482287 61.83624936
-1.745414113 1.812621006 96.09490605
0.4061109679 3.791079597 8.866339414
1.931953508 -2.286368272 63.67559846
1.244198079 3.683649087 3.986744531
0.04793267155 -3.370035951 39.22193958
-0.9349694665 2.060199298 112.8732706
-5.962316856 -1.780226932 120.0810426
-0.7788242617 0.90845549 122.8075714
3.229391872 3.295538908 120.9281552
-2.883856129 1.596939836 43.39579238
2.354491006 -2.443451452 37.61758768
-1.222188843 -2.440754316 81.35937481
-1.787391019 -5.085648404 2.353155613
-6.93306197 12.52551796 140.0279933
9.529916189 3.295540809 120.0430702
6.983255407 -3.295190117 121.6699377
-8.519909691 6.110473622 129.8376377
-3.109270561 0.5420000585 53.34456135
-2.384179035 -2.356010341 40.61857189
-2.074805283 -2.77220443 32.48612899
2.924240805 -2.290403353 15.47243932
-2.133112509 -2.967155369 19.92894827
3.193024909 0.8948273287 42.11371142
-7.512982084 23.06332117 155.774924
-1.374013983 -3.314756989 25.00120241
2.51004822 1.267603241 75.83906247
-7.237846715 1.479500451 114.9272348
3.070189648 1.616655149 31.77947347
-3.226157429 1.874416439 14.4471892
6.921516817 3.295540044 119.0876647
2.965386627 -0.4110783462 63.78322517
-3.004652512 1.534208374 38.24672145
-3.150385493 -0.1098584899 53.4408771
3.599195644 3.292243595 122.4429337
-7.713957943 20.60905702 80.70880118
-6.604923044 5.025731567 109.82018
2.396961162 -1.697973985 67.88697239
0.03002172095 3.266234494 46.25121693
-3.267536971 -1.605126221 20.49856248
11.75525562 -3.292134309 117.3625184
-2.420866081 -1.60009276 122.8072704
1.244755611 -2.904159124 53.30484921
-1.646974618 2.619041739 57.44318371
3.337728376 -1.368355669 23.65265306
2.404210468 1.364336042 79.03316991
10.78783424 -2.396473498 116.125045
-1.615907922 2.488846298 66.10514665
-7.469497617 13.16903871 137.1941004
0.4598760015 -2.862199446 70.33324715
2.478936497 -2.323558973 37.09533089
1.331279695 2.898294968 50.92254297
-10.4427379 -0.2539967626 117.4626663
-8.61602555 5.563325897 127.1492721
-1.605840435 -3.225382835 22.96323047
2.610753089 -0.1387307052 89.1815427
-2.194612352 -1.645778385 80.56735691
-8.245546431 -35.42653421 119.9531452
-3.866755397 -3.1688383 122.7933883
2.251295031 2.513388455 38.38101531
0.6820546833 3.56498729 22.0835719
-2.717929726 2.037649274 36.87043343
3.330651574 0.9196420131 32.82038846
2.836756871 0.5694535492 71.24254084
-8.040309477 17.03601865 87.43346476
1.080422326 -2.993628062 51.27491383
-0.03562773343 -3.702807888 17.14597147
-1.136179025 2.91673677 55.11550369
4.742593601 3.295539351 117.8243842
-3.323605604 -0.3604145269 39.84483346
2.599738388 -0.910364606 79.7961332
2.307224693 -1.121146046 92.4251799
0.3859247829 -2.445143717 98.58658814
-3.714885564 0.6220531563 12.49635486
-0.9503300477 -2.007380692 115.5042158
12.63791728 -3.295481012 118.7185348
-6.738328649 1.417711596 115.9184625
-6.954451166 14.95167718 92.18318796
-8.175099319 18.02186265 86.26826005
-0.003176025147 -3.737088557 15.07630599
4.939920908 -2.457308496 1.158722832
-1.527703186 3.345791304 18.32314814
3.192990442 1.681486353 22.48897032
-2.727648789 2.402410226 20.88590643
-0.2894506571 3.450724826 32.26608352
-2.583872474 -2.390642782 28.82097235
-7.628287499 26.40159888 71.77437466
13.99504869 -1.891306155 122.8062148
-0.6632175804 2.515662182 89.97946884
-4.51195172 -0.05381228247 2.35315501
-2.109425076 3.14634762 11.6695099
-8.088351468 24.41764935 159.6614395
1.501444729 -3.491754041 10.55094606
0.1054755697 3.959794714 2.353154546
-8.061634954 -40.07218007 119.8484024
-2.317010057 2.465546938 38.0660768
-8.152200158 21.64910587 81.06946409
-3.299166571 0.4848804001 41.07542348
-6.357740473 -2.123723967 120.3871894
-8.113835318 -43.98090818 120.1057939
-8.362517504 -0.7139148329 116.9673096
-2.481110786 -2.685183447 19.7416234
-6.93067606 -23.53984759 120.7516539
1.696496491 -1.45066433 114.6101412
0.8823845771 -1.519961815 2.353154668
2.227450018 0.7651284007 106.4523339
-1.18996997 -3.30269568 29.35984533
12.57280957 1.313372698 122.8075611
1.735661452 -3.29551903 120.6353968
-5.351783114 2.202818449 117.7320465
-7.80452181 2.433222109 120.0781495
-3.33664723 0.6273983153 37.64528144
2.73098629 2.097729672 30.48877557
-7.025164488 -5.681140349 120.3108367
-2.752435973 0.7512511425 73.11025953
-8.307800801 2.802093879 125.1609578
-1.567811908 2.715370101 54.25604444
-0.3600537805 2.863771543 70.88401886
1.138964946 2.944693315 53.27151829
-1.318865591 2.666794891 64.97365632
-7.112045194 5.353203358 106.3095968
2.239747598 1.288472119 91.12987293
-7.66604276 -18.16486405 122.2423722
-7.867866329 -19.4881628 118.9783217
-7.144217659 10.40687939 133.3461629
0.219099572 -2.215627709 114.9622146
-2.007261812 -1.889569246 79.90931489
-8.01896661 -30.98944667 119.4547808
-3.595580377 0.3726555651 22.07545275
5.930201699 -3.2948633 121.9123583
-0.7098851382 -2.702458636 77.11282895
-3.326517934 -1.439440707 22.24390898
1.030247804 3.123140402 43.95805832
3.476003781 -0.6582644547 28.16418229
2.568628939 1.147697377 76.16419734
-5.256465614 0.8677778586 115.8356092
1.803260734 -1.80664482 93.94791776
1.937825258 2.782125631 37.7873128
2.906115472 -2.577510973 4.29118293
15.10338433 1.382533462 122.7848535
-7.903286186 19.38067592 149.0347085
-1.453824627 2.505399735 70.24031376
6.948242807 -3.295517369 119.5958842
-1.239811083 2.276408799 90.50156312
-7.475076464 17.77097692 145.8923256
-7.363183217 23.84431337 77.57562621
-0.1702681058 0.9254147395 115.5767822
1.704629919 -1.752651458 100.9266013
-2.050936615 2.751753805 34.55718569
-7.858905263 -9.853616215 118.6310352
-8.37594211 -14.86139134 121.0905889
-6.80906675 5.892377819 109.4078003
-1.968481624 -1.872400493 82.64363609
-8.474236247 8.67039258 131.0267024
-2.984369921 -0.2224591399 63.75615712
-2.503589586 -2.61242238 22.55057583
-2.920143429 -0.5370099697 65.9697473
-2.936304466 1.55825761 41.52109026
-1.832125117 2.166587284 74.10809839
-2.498926098 -1.334060905 74.39891208
-6.7306449 0.9985401889 121.5872102
-0.1552012701 -2.494957875 115.579529
-1.748264019 -3.489729487 2.95281638
2.746552931 -3.295518653 118.9806214
-6.093601632 1.418525974 120.0797041
3.04980605 0.5700802779 57.11974398
-2.42193781 -0.1615564165 101.603551
-1.839524434 2.213627652 71.36120867
-3.893753638 2.335667645 115.5815591
-2.984058888 -0.5645073673 58.37743415
4.545345102 -3.295518091 120.0154471
2.397270525 2.779464527 18.42427821
0.05562745518 -3.780343501 11.85320112
0.1882776749 -3.086274288 57.19497753
-7.547927738 -12.73491811 118.7234731
-3.34482006 -1.008569945 30.18605115
-0.1373661189 -2.827681798 115.7464844
2.562688189 -0.5733399343 88.7136231
-7.928623696 -4.908080975 118.5579269
4.235214135 -2.557773437 115.5803638
-6.864083919 10.19266674 134.0044094
0.6771030203 3.264560595 41.76238205
0.5083128991 3.859879203 3.660964637
0.1931407413 -3.295405438 117.3350071
1.293781365 -1.75179597 115.5769175
2.817523361 0.7624651548 68.72539421
-7.581150367 24.37108043 160.2826746
3.588231871 1.109015917 12.65125672
3.079986881 3.032872365 116.3531897
-2.515891198 2.085992729 45.26758605
1.751733863 2.418615163 64.4858463
3.044596135 -0.4097590598 58.51793998
-3.06623817 -1.497882276 35.75836772
-4.513422239 2.577523101 115.9064011
14.69562161 -3.285998405 122.568466
15.14290447 -1.865243035 118.4140731
2.612777511 1.862790349 49.7304316
-2.2352258 -2.680909871 30.39885598
-8.558989079 4.592461035 111.9538322
3.819530612 -0.7451166749 122.8075714
3.634808198 -0.4450380692 18.98889183
-2.959876363 2.389663898 9.438595936
-0.5689855437 2.46128391 95.2911066
0.02769468167 -2.30109007 110.5271769
2.95209622 -1.982209968 27.11264957
-7.465189659 16.67914571 143.8627202
-5.396817971 1.267830411 116.8194658
1.283918291 -2.095806236 99.76592387
-1.461551727 2.011051994 97.88068382
11.68366672 3.295541771 120.1099596
-1.997212023 -3.129915109 16.25300287
-3.471438638 1.722531696 4.82723255
-7.411367242 4.276458448 128.0016106
4.050718128 3.292693411 122.3513892
-3.264765745 -1.54646939 22.51202679
10.4599804 -2.991589242 116.1951792
2.99821692 -1.754116348 31.69070961
-6.725420827 -6.545313579 119.2442011
-7.212256219 17.9073358 88.17054096
-2.042241562 -1.048470893 110.3523396
-7.675524517 6.92879938 101.8315057
3.063238038 -0.2299712052 58.4557293
2.816215708 -1.040894713 63.40142368
5.543554837 -3.295517906 119.2591354
1.64499362 -2.475679678 65.96405576
-8.431442101 9.733613373 132.8775984
2.195226163 1.821570825 73.07488961
-3.050743224 1.797423474 27.22569899
1.358663575 -2.897237449 50.12077772
-8.120242176 -33.48694569 120.8678244
-6.713592547 0.5025491698 121.800167
1.455789828 -3.131482729 33.2361022
-6.72176833 -3.888317827 119.2449846
-7.719509126 0.1709379302 116.8019826
1.228443187 4.457537561 2.353154608
0.2554053405 -3.506820906 28.7539478
-0.3816387707 -2.954824552 64.67914128
3.552224117 -1.219036432 12.81982045
-8.181529386 18.95144477 149.3741965
8.089204682 -0.04573834892 122.8075714
-7.032999575 3.835798179 126.8881928
4.060315553 0.03122444067 115.5771303
1.84650697 1.510957976 104.2935991
-1.461054327 2.901319974 46.65109622
3.502441953 1.217290444 16.04099587
-7.294429591 -13.78391568 121.7721292
-0.4696197113 -2.545069886 91.38446567
0.5058010935 -3.700101544 14.24291431
-2.66891066 -0.8005812435 77.4995582
-3.157747227 0.9996818486 42.33588
-8.159582509 2.219449617 116.8857317
-1.579147189 -3.420059563 12.31833189
2.928608258 1.571422381 41.56001832
-1.787966629 -3.116361017 23.65201504
-8.025773622 21.83940509 81.19136633
1.523344298 -3.443477274 12.69653342
10.24717492 -3.292014489 122.4792823
-6.940506736 11.06270303 99.95446381
-7.209229758 9.21735617 99.9470425
3.353022494 -1.816845291 8.804834038
-5.493778977 -1.391621258 120.1556194
15.14303303 -0.1776651509 119.148998
-3.78624337 0.9478228347 3.181374049
-1.86963151 -2.230189406 69.22618332
-0.05595555126 -2.28007323 111.7411581
1.82338133 -0.6036989746 122.8075714
-0.3167695977 -3.797765255 9.00570258
-1.730668063 -3.218910879 19.4082347
2.14669071 1.403036437 93.00745416
1.399546995 -3.295363965 117.2614647
3.113616954 -1.910501523 19.9494685
1.162154392 2.57724734 75.19988364
-2.195680052 1.239722029 95.26751886
-2.754529804 -2.483677637 16.04625369
-8.129416024 18.69640514 85.08690142
0.8780174591 2.167037431 108.1280855
-11.64286942 -1.168157234 120.0088728
2.385792393 1.242422469 83.96489621
1.219330847 -2.695500301 66.41846069
0.1243036707 -0.1881343981 115.5767822
-8.409713987 11.68947602 138.8151914
2.56332703 1.318916409 71.07702564
-1.563924536 1.758663423 106.5886218
-2.15613312 1.135062799 115.5770123
-6.98335553 -7.48312058 120.355271
4.132389808 3.657996189 1.140336775
-10.51738367 -0.5522744362 121.1996019
4.37256159 3.365346219 0.2232862607
0.2152569692 2.624401047 87.77149502
-3.78807255 0.5282602415 2.353154886
8.281645057 2.839723006 115.7733712
-7.451899214 12.68696666 98.14979867
-8.479045887 -27.18429864 120.4307346
-0.6901714071 -3.134923944 49.80780408
3.536825224 -0.4946374828 25.18757623
-0.5764283644 2.506771716 92.23423745
-6.835611924 -7.694876747 120.1775578
-2.63057065 2.653109413 15.05695161
-3.883776597 -0.2181090948 3.970168873
12.81530978 -3.295417607 119.9157667
-2.061122757 3.038332947 19.30351564
-8.381798196 7.551353088 103.2288133
10.11052918 -3.295515811 120.6366734
1.293637172 -1.885155046 111.5178579
-3.050853415 2.071135775 18.23096433
1.667556972 1.484893606 114.6548229
-1.780858801 -1.82709253 93.84123507
3.487028318 -0.8090932623 24.95547465
-1.480674818 1.755043936 110.3092578
2.590229189 0.6623366133 85.22221188
-0.206212152 -3.614590644 21.90100978
2.097744562 -4.227802276 2.353155486
10.0552802 -1.535430293 116.0152445
-1.135050027 3.29429752 122.0164455
-8.028329795 -26.66951583 121.3105723
-0.5345975848 -3.179237683 48.73419382
-6.108752343 -1.523427098 117.478316
-2.259703338 3.02625894 11.50332454
15.12027519 0.149681551 122.7720109
-8.378536263 -17.35009013 119.3117934
-2.692577312 -0.6702772402 78.51501866
-7.239455772 -46.38881993 120.3278137
-2.746184958 2.098261348 32.83651337
-2.522866987 1.171152582 78.12460084
1.070245627 2.60274307 76.49915304
-1.207616112 2.93716679 52.42008732
-7.232821257 12.56011979 137.0585349
3.967481688 2.333372808 2.747837852
-2.362091772 1.270140605 84.48910756
-2.12282056 -4.199455436 2.353155482
-0.6965587206 2.24832847 106.4476816
1.006693785 -2.705855416 71.1309465
2.717011217 -1.551730525 54.66600892
-7.831894308 24.31828897 75.37315174
0.968054909 -2.624029185 77.12016832
4.041667621 -0.8121536893 122.8075714
-1.420812855 2.035115373 98.36528774
0.1247963912 2.320026777 108.6307693
3.207581703 -1.886300833 15.1683847
2.329814221 -0.02385004639 108.640458
-0.7784332524 -2.465691291 90.94015148
-1.909716678 -2.350724999 61.29100993
-7.245240578 21.33789232 81.83317328
-3.598189191 -0.405278756 21.68779712
7.628932502 3.295540295 118.60572
10.26650353 -2.007644027 116.0468346
1.474774463 1.920171334 102.0196642
0.4902296516 4.531002699 2.353154602
0.7967197151 -3.446107668 27.8155562
-5.378050218 -2.621364472 119.3236312
2.379166254 2.1220998 50.80624569
0.9825857878 3.435820256 24.86474263
10.65338045 3.208478236 116.994689
2.709139543 -0.9459754239 72.10026891
-3.08369498 -0.542160207 55.04633973
3.629536639 -0.08851594226 21.6778674
-7.747062686 -22.39829021 121.9934667
-2.342383301 -1.642392968 73.06867287
-2.236154862 -0.1435296433 114.0916149
-8.661687223 -9.899572532 119.3250022
-0.6891420012 2.775505011 72.83983271
2.45473816 2.810855295 14.3616607
3.520176968 3.295464683 117.4307441
-4.560984695 -2.307844 115.5957431
-3.806068181 0.04516403684 10.22341582
-2.46219917 -2.35698661 36.54212489
2.413000423 1.798325694 62.79863717
2.514102624 -0.5101182333 93.05206655
-2.216562478 -3.295062483 117.274272
-4.191463591 -0.9409338844 2.353154996
3.353792634 0.1913326557 39.36333295
-2.404057289 2.668632165 23.8682596
1.561930077 -1.858143649 101.5275006
3.244958795 0.4620450895 44.83448323
-8.282921566 -34.215511 120.6037696
-7.224959165 -42.8530659 120.5531195
-3.211239713 -1.196631474 35.08593244
-0.6017983327 3.305592005 39.88108911
-3.07315706 1.842690284 24.47552322
2.26737814 2.026271742 60.65502544
15.05392338 3.280889952 117.6824824
-7.834968094 -12.90858812 118.7377168
-2.345435221 2.319590339 44.16845675
0.5924798575 -2.95637919 63.13619535
10.92603154 3.295341925 117.6530728
-3.188330633 0.3089275994 49.12428915
0.5771142961 3.659691503 16.4660626
-7.957197297 27.82756308 165.5501107
3.207033159 1.512456657 26.99135858
6.515235072 3.295539952 118.3642416
1.810152716 2.982113549 30.8737831
0.6623895235 -2.907867126 64.88435326
-4.17894501 3.540081819 2.317047987
-8.401717233 10.92198331 97.98959434
-7.414433617 -12.85004221 121.921791
0.5825393552 -2.576953798 87.62129825
-2.275883896 1.155019531 93.20653054
-1.743693965 -2.649042368 52.62208516
-1.630903303 -2.741802546 50.70607554
-2.457317627 -0.08280969704 99.76427959
-2.293965463 2.766824568 23.46266516
5.481408305 -3.295517236 117.6349642
1.95589807 -2.79802238 36.19776531
-2.165691332 0.3774245958 2.353154586
15.12009004 3.260629746 119.5786121
0.2900415656 3.780860736 10.29534913
2.948736234 1.796594343 33.27075341
-5.648264884 -1.348931231 120.3755111
-2.852963524 -2.346091642 16.79513988
-2.611433252 -1.464123677 63.6585201
-6.777702672 9.898522675 101.2899298
0.372860273 2.405571975 101.3081973
-7.605409649 -1.491248766 117.1947324
-3.357728402 -1.278805979 24.11128117
0.5556007402 -2.830709752 71.80214328
-7.095826123 12.58842255 137.6482607
